//X Y Z Point_Source_ID User_Data Scan_Angle_Rank Number_of_Returns Return_Number Time Intensity Classification
223038.60000610 536572.75000000 19.76000023 162.000000 2.000000 -2.000000 3.000000 3.000000 143024622.083342 137.000000 6.000000
223038.61000061 536572.72000122 30.15999985 162.000000 2.000000 -2.000000 2.000000 1.000000 143024622.083345 96.000000 6.000000
223038.30999756 536572.86000061 19.69000053 162.000000 2.000000 -2.000000 2.000000 2.000000 143024622.083345 14.000000 6.000000
223038.33000183 536572.83000183 29.97999954 162.000000 2.000000 -2.000000 2.000000 1.000000 143024622.083347 148.000000 6.000000
223038.22999573 536572.87999725 26.50000000 162.000000 2.000000 -2.000000 2.000000 2.000000 143024622.083347 40.000000 6.000000
223038.02000427 536572.94999695 30.05999947 162.000000 2.000000 -2.000000 3.000000 1.000000 143024622.083350 135.000000 6.000000
223037.94000244 536572.98999786 27.18000031 162.000000 2.000000 -2.000000 3.000000 2.000000 143024622.083350 14.000000 6.000000
223037.71000671 536573.09999847 19.75000000 162.000000 2.000000 -2.000000 3.000000 3.000000 143024622.083350 25.000000 6.000000
223037.72999573 536573.06999969 29.89999962 162.000000 2.000000 -2.000000 2.000000 1.000000 143024622.083353 19.000000 6.000000
223037.63999939 536573.11000061 27.17000008 162.000000 2.000000 -2.000000 2.000000 2.000000 143024622.083353 25.000000 6.000000
223037.44000244 536573.18000031 29.87000084 162.000000 2.000000 -2.000000 3.000000 1.000000 143024622.083355 15.000000 6.000000
223037.35000610 536573.22000122 27.17000008 162.000000 2.000000 -2.000000 3.000000 2.000000 143024622.083355 28.000000 6.000000
223037.33000183 536573.23000336 26.42000008 162.000000 2.000000 -2.000000 3.000000 3.000000 143024622.083355 31.000000 6.000000
223037.13999939 536573.30000305 29.76000023 162.000000 2.000000 -2.000000 3.000000 1.000000 143024622.083358 16.000000 6.000000
223037.02999878 536573.34999847 26.43000031 162.000000 2.000000 -2.000000 3.000000 2.000000 143024622.083358 297.000000 6.000000
223036.78999329 536573.45999908 19.06999969 162.000000 2.000000 -2.000000 3.000000 3.000000 143024622.083358 10.000000 6.000000
223036.85000610 536573.41000366 29.71999931 162.000000 2.000000 -2.000000 3.000000 1.000000 143024622.083361 21.000000 6.000000
223036.75000000 536573.45999908 26.54999924 162.000000 2.000000 -2.000000 3.000000 2.000000 143024622.083361 33.000000 6.000000
223036.50000000 536573.56999969 19.07999992 162.000000 2.000000 -2.000000 3.000000 3.000000 143024622.083361 14.000000 6.000000
223036.55999756 536573.51999664 29.27000046 162.000000 2.000000 -2.000000 2.000000 1.000000 143024622.083363 78.000000 6.000000
223036.47000122 536573.56999969 26.57999992 162.000000 2.000000 -2.000000 2.000000 2.000000 143024622.083363 23.000000 6.000000
223036.27999878 536573.62999725 29.42000008 162.000000 2.000000 -2.000000 3.000000 1.000000 143024622.083366 76.000000 6.000000
223036.22000122 536573.66000366 27.64999962 162.000000 2.000000 -2.000000 3.000000 2.000000 143024622.083366 16.000000 6.000000
223036.17999268 536573.68000031 26.57999992 162.000000 2.000000 -2.000000 3.000000 3.000000 143024622.083366 141.000000 6.000000
223035.99000549 536573.75000000 29.59000015 162.000000 2.000000 -2.000000 2.000000 1.000000 143024622.083368 63.000000 6.000000
223035.88000488 536573.80000305 26.52000046 162.000000 2.000000 -2.000000 2.000000 2.000000 143024622.083368 76.000000 6.000000
223035.67999268 536573.87000275 29.63999939 162.000000 2.000000 -2.000000 3.000000 1.000000 143024622.083371 21.000000 6.000000
223035.61000061 536573.90000153 27.56999969 162.000000 2.000000 -2.000000 3.000000 2.000000 143024622.083371 76.000000 6.000000
223035.30000305 536574.05000305 18.90999985 162.000000 2.000000 -2.000000 3.000000 3.000000 143024622.083371 28.000000 6.000000
223035.41000366 536573.97000122 29.62999916 162.000000 2.000000 -2.000000 3.000000 1.000000 143024622.083373 21.000000 6.000000
223035.33999634 536574.01000214 27.56999969 162.000000 2.000000 -2.000000 3.000000 2.000000 143024622.083373 24.000000 6.000000
223035.02000427 536574.16000366 18.88999939 162.000000 2.000000 -2.000000 3.000000 3.000000 143024622.083373 23.000000 6.000000
223035.08999634 536574.09999847 29.62999916 162.000000 2.000000 -2.000000 2.000000 1.000000 143024622.083376 27.000000 6.000000
223034.69000244 536574.27999878 18.84000015 162.000000 2.000000 -2.000000 2.000000 2.000000 143024622.083376 20.000000 6.000000
223034.83000183 536574.19999695 29.72999954 162.000000 2.000000 -2.000000 2.000000 1.000000 143024622.083379 12.000000 6.000000
223034.75000000 536574.23999786 27.55999947 162.000000 2.000000 -2.000000 2.000000 2.000000 143024622.083379 104.000000 6.000000
223034.53999329 536574.31999969 29.70999908 162.000000 2.000000 -2.000000 2.000000 1.000000 143024622.083381 41.000000 6.000000
223034.47000122 536574.34999847 27.87999916 162.000000 2.000000 -2.000000 2.000000 2.000000 143024622.083381 83.000000 6.000000
223034.25999451 536574.43000031 29.60000038 162.000000 2.000000 -2.000000 2.000000 1.000000 143024622.083384 43.000000 6.000000
223034.21000671 536574.44999695 28.22999954 162.000000 2.000000 -2.000000 2.000000 2.000000 143024622.083384 125.000000 6.000000
223033.94000244 536574.55000305 29.40999985 162.000000 2.000000 -2.000000 2.000000 1.000000 143024622.083386 133.000000 6.000000
223033.89999390 536574.56999969 28.19000053 162.000000 2.000000 -2.000000 2.000000 2.000000 143024622.083386 35.000000 6.000000
223033.66000366 536574.66000366 29.64999962 162.000000 2.000000 -3.000000 2.000000 1.000000 143024622.083389 26.000000 6.000000
223033.60000610 536574.69000244 28.18000031 162.000000 2.000000 -3.000000 2.000000 2.000000 143024622.083389 135.000000 6.000000
223033.55000305 536574.69000244 33.97999954 162.000000 2.000000 -3.000000 1.000000 1.000000 143024622.083392 417.000000 6.000000
223033.08000183 536574.88999939 29.86000061 162.000000 2.000000 -3.000000 2.000000 1.000000 143024622.083394 47.000000 6.000000
223033.00999451 536574.91999817 28.14999962 162.000000 2.000000 -3.000000 2.000000 2.000000 143024622.083394 137.000000 6.000000
223032.80000305 536575.00000000 30.02000046 162.000000 2.000000 -3.000000 2.000000 1.000000 143024622.083397 35.000000 6.000000
223032.74000549 536575.02999878 28.43000031 162.000000 2.000000 -3.000000 2.000000 2.000000 143024622.083397 126.000000 6.000000
223032.52999878 536575.09999847 30.06999969 162.000000 2.000000 -3.000000 2.000000 1.000000 143024622.083399 14.000000 6.000000
223032.47000122 536575.12999725 28.53000069 162.000000 2.000000 -3.000000 2.000000 2.000000 143024622.083399 175.000000 6.000000
223032.25000000 536575.20999908 30.13999939 162.000000 2.000000 -3.000000 2.000000 1.000000 143024622.083402 18.000000 6.000000
223032.17999268 536575.23999786 28.62999916 162.000000 2.000000 -3.000000 2.000000 2.000000 143024622.083402 220.000000 6.000000
223031.94999695 536575.33000183 30.22999954 162.000000 2.000000 -3.000000 2.000000 1.000000 143024622.083404 60.000000 6.000000
223031.83999634 536575.37999725 27.62999916 162.000000 2.000000 -3.000000 2.000000 2.000000 143024622.083404 88.000000 6.000000
223031.52999878 536575.50000000 27.72999954 162.000000 2.000000 -3.000000 1.000000 1.000000 143024622.083407 114.000000 6.000000
223031.38999939 536575.55000305 30.51000023 162.000000 2.000000 -3.000000 2.000000 1.000000 143024622.083410 24.000000 6.000000
223030.63000488 536575.88999939 13.65999985 162.000000 2.000000 -3.000000 2.000000 2.000000 143024622.083410 84.000000 6.000000
223031.08000183 536575.66999817 30.59000015 162.000000 2.000000 -3.000000 2.000000 1.000000 143024622.083412 17.000000 6.000000
223030.80999756 536575.76999664 30.77000046 162.000000 2.000000 -3.000000 2.000000 1.000000 143024622.083415 37.000000 6.000000
223030.52999878 536575.87999725 30.87999916 162.000000 2.000000 -3.000000 2.000000 1.000000 143024622.083417 15.000000 6.000000
223030.27000427 536575.98999786 31.04000092 162.000000 2.000000 -3.000000 3.000000 1.000000 143024622.083420 22.000000 6.000000
223030.08000183 536576.06999969 26.96999931 162.000000 2.000000 -3.000000 3.000000 2.000000 143024622.083420 95.000000 6.000000
223029.96000671 536576.11000061 31.13999939 162.000000 2.000000 -3.000000 2.000000 1.000000 143024622.083423 108.000000 6.000000
223029.66000366 536576.23000336 30.98999977 162.000000 2.000000 -3.000000 1.000000 1.000000 143024622.083425 155.000000 6.000000
223029.39999390 536576.33000183 31.47999954 162.000000 2.000000 -3.000000 1.000000 1.000000 143024622.083428 113.000000 6.000000
223029.11999512 536576.44000244 31.78000069 162.000000 2.000000 -3.000000 3.000000 1.000000 143024622.083431 42.000000 6.000000
223029.05000305 536576.45999908 30.50000000 162.000000 2.000000 -3.000000 3.000000 2.000000 143024622.083431 73.000000 6.000000
223028.83999634 536576.54000092 31.93000031 162.000000 2.000000 -3.000000 3.000000 1.000000 143024622.083433 60.000000 6.000000
223028.83999634 536576.54000092 31.93000031 162.000000 2.000000 -3.000000 3.000000 2.000000 143024622.083433 60.000000 6.000000
223028.58000183 536576.65000153 32.18999863 162.000000 2.000000 -3.000000 2.000000 1.000000 143024622.083436 64.000000 6.000000
223028.30000305 536576.76000214 32.40000153 162.000000 2.000000 -3.000000 2.000000 1.000000 143024622.083438 21.000000 6.000000
223028.02000427 536576.86000061 32.65000153 162.000000 2.000000 -3.000000 3.000000 1.000000 143024622.083441 33.000000 6.000000
223027.87000275 536576.93000031 29.76000023 162.000000 2.000000 -3.000000 3.000000 2.000000 143024622.083441 39.000000 6.000000
223027.73000336 536576.98000336 32.93999863 162.000000 2.000000 -3.000000 2.000000 1.000000 143024622.083443 17.000000 6.000000
223027.47000122 536577.08000183 33.18999863 162.000000 2.000000 -3.000000 2.000000 1.000000 143024622.083446 19.000000 6.000000
223027.18000031 536577.19000244 33.45999908 162.000000 2.000000 -3.000000 2.000000 1.000000 143024622.083449 54.000000 6.000000
223026.90000153 536577.30000305 33.40000153 162.000000 2.000000 -3.000000 1.000000 1.000000 143024622.083451 60.000000 6.000000
223026.62000275 536577.41000366 33.43999863 162.000000 2.000000 -3.000000 2.000000 1.000000 143024622.083454 89.000000 6.000000
223046.58999634 536569.86000061 33.68999863 162.000000 2.000000 -1.000000 2.000000 1.000000 143024622.089411 76.000000 6.000000
223046.33000183 536570.01000214 13.61999989 162.000000 2.000000 -1.000000 2.000000 2.000000 143024622.089411 151.000000 6.000000
223046.27000427 536569.98999786 32.70999908 162.000000 2.000000 -1.000000 2.000000 1.000000 143024622.089414 215.000000 6.000000
223046.00999451 536570.13999939 13.52999973 162.000000 2.000000 -1.000000 2.000000 2.000000 143024622.089414 15.000000 6.000000
223045.69999695 536570.26000214 13.55000019 162.000000 2.000000 -1.000000 1.000000 1.000000 143024622.089416 123.000000 6.000000
223045.77999878 536570.16999817 38.50000000 162.000000 2.000000 -1.000000 2.000000 1.000000 143024622.089419 171.000000 6.000000
223045.41000366 536570.37000275 13.60999966 162.000000 2.000000 -1.000000 2.000000 2.000000 143024622.089419 18.000000 6.000000
223045.47999573 536570.29000092 38.11999893 162.000000 2.000000 -1.000000 1.000000 1.000000 143024622.089422 139.000000 6.000000
223045.19999695 536570.40000153 38.13999939 162.000000 2.000000 -1.000000 1.000000 1.000000 143024622.089424 26.000000 6.000000
223044.91999817 536570.51000214 37.16999817 162.000000 2.000000 -1.000000 1.000000 1.000000 143024622.089427 50.000000 6.000000
223044.61999512 536570.62000275 36.61000061 162.000000 2.000000 -1.000000 1.000000 1.000000 143024622.089429 113.000000 6.000000
223044.32000732 536570.75000000 35.99000168 162.000000 2.000000 -1.000000 2.000000 1.000000 143024622.089432 93.000000 6.000000
223044.25999451 536570.77999878 32.47999954 162.000000 2.000000 -1.000000 2.000000 2.000000 143024622.089432 28.000000 6.000000
223044.00000000 536570.87000275 35.50999832 162.000000 2.000000 -1.000000 2.000000 1.000000 143024622.089434 49.000000 6.000000
223043.86000061 536570.94999695 27.71999931 162.000000 2.000000 -1.000000 2.000000 2.000000 143024622.089434 18.000000 6.000000
223043.72999573 536570.98000336 35.02000046 162.000000 2.000000 -1.000000 2.000000 1.000000 143024622.089437 20.000000 6.000000
223043.58000183 536571.05000305 27.48999977 162.000000 2.000000 -1.000000 2.000000 2.000000 143024622.089437 59.000000 6.000000
223043.13000488 536571.20999908 34.11999893 162.000000 2.000000 -1.000000 1.000000 1.000000 143024622.089442 101.000000 6.000000
223042.83999634 536571.33000183 33.77000046 162.000000 2.000000 -1.000000 2.000000 1.000000 143024622.089445 100.000000 6.000000
223042.80999756 536571.33999634 32.36999893 162.000000 2.000000 -1.000000 2.000000 2.000000 143024622.089445 10.000000 6.000000
223042.55999756 536571.44000244 33.45999908 162.000000 2.000000 -1.000000 3.000000 1.000000 143024622.089447 58.000000 6.000000
223042.55000305 536571.44999695 32.68000031 162.000000 2.000000 -1.000000 3.000000 2.000000 143024622.089447 52.000000 6.000000
223042.41000366 536571.51999664 26.43000031 162.000000 2.000000 -1.000000 3.000000 3.000000 143024622.089447 27.000000 6.000000
223042.25000000 536571.55999756 33.06000137 162.000000 2.000000 -1.000000 1.000000 1.000000 143024622.089450 92.000000 6.000000
223041.94999695 536571.68000031 32.86000061 162.000000 2.000000 -1.000000 3.000000 1.000000 143024622.089453 23.000000 6.000000
223041.83000183 536571.73999786 27.57999992 162.000000 2.000000 -1.000000 3.000000 2.000000 143024622.089453 26.000000 6.000000
223041.80000305 536571.76000214 26.44000053 162.000000 2.000000 -1.000000 3.000000 3.000000 143024622.089453 266.000000 6.000000
223041.66000366 536571.80000305 32.56000137 162.000000 2.000000 -1.000000 3.000000 1.000000 143024622.089455 28.000000 6.000000
223041.53999329 536571.86000061 27.57999992 162.000000 2.000000 -1.000000 3.000000 2.000000 143024622.089455 80.000000 6.000000
223041.52000427 536571.87000275 26.54000092 162.000000 2.000000 -1.000000 3.000000 3.000000 143024622.089455 52.000000 6.000000
223041.36000061 536571.91999817 32.27999878 162.000000 2.000000 -2.000000 3.000000 1.000000 143024622.089458 36.000000 6.000000
223041.25000000 536571.97000122 27.60000038 162.000000 2.000000 -2.000000 3.000000 2.000000 143024622.089458 44.000000 6.000000
223041.22000122 536571.98000336 26.53000069 162.000000 2.000000 -2.000000 3.000000 3.000000 143024622.089458 97.000000 6.000000
223041.07000732 536572.02999878 32.04999924 162.000000 2.000000 -2.000000 3.000000 1.000000 143024622.089460 27.000000 6.000000
223040.96000671 536572.08000183 27.62000084 162.000000 2.000000 -2.000000 3.000000 2.000000 143024622.089460 22.000000 6.000000
223040.92999268 536572.09999847 26.46999931 162.000000 2.000000 -2.000000 3.000000 3.000000 143024622.089460 151.000000 6.000000
223040.78999329 536572.13999939 31.88999939 162.000000 2.000000 -2.000000 2.000000 1.000000 143024622.089463 41.000000 6.000000
223040.64999390 536572.19999695 26.55999947 162.000000 2.000000 -2.000000 2.000000 2.000000 143024622.089463 24.000000 6.000000
223040.50000000 536572.25000000 31.70000076 162.000000 2.000000 -2.000000 3.000000 1.000000 143024622.089465 26.000000 6.000000
223040.36000061 536572.31999969 26.54000092 162.000000 2.000000 -2.000000 3.000000 2.000000 143024622.089465 33.000000 6.000000
223040.16999817 536572.41000366 19.09000015 162.000000 2.000000 -2.000000 3.000000 3.000000 143024622.089465 21.000000 6.000000
223040.19999695 536572.37000275 31.54000092 162.000000 2.000000 -2.000000 3.000000 1.000000 143024622.089468 22.000000 6.000000
223040.07000732 536572.44000244 26.43000031 162.000000 2.000000 -2.000000 3.000000 2.000000 143024622.089468 29.000000 6.000000
223039.86999512 536572.52999878 19.06999969 162.000000 2.000000 -2.000000 3.000000 3.000000 143024622.089468 27.000000 6.000000
223039.88999939 536572.50000000 31.29000092 162.000000 2.000000 -2.000000 3.000000 1.000000 143024622.089471 34.000000 6.000000
223039.86999512 536572.50000000 30.65999985 162.000000 2.000000 -2.000000 3.000000 2.000000 143024622.089471 35.000000 6.000000
223039.75000000 536572.55999756 26.40999985 162.000000 2.000000 -2.000000 3.000000 3.000000 143024622.089471 126.000000 6.000000
223039.60000610 536572.61000061 30.89999962 162.000000 2.000000 -2.000000 2.000000 1.000000 143024622.089473 48.000000 6.000000
223039.47999573 536572.66999817 26.44000053 162.000000 2.000000 -2.000000 2.000000 2.000000 143024622.089473 61.000000 6.000000
223039.30000305 536572.73000336 31.02000046 162.000000 2.000000 -2.000000 2.000000 1.000000 143024622.089476 159.000000 6.000000
223038.97999573 536572.87999725 19.69000053 162.000000 2.000000 -2.000000 2.000000 2.000000 143024622.089476 21.000000 6.000000
223039.02000427 536572.83000183 30.88999939 162.000000 2.000000 -2.000000 3.000000 1.000000 143024622.089478 79.000000 6.000000
223038.91000366 536572.88999939 27.05999947 162.000000 2.000000 -2.000000 3.000000 2.000000 143024622.089478 20.000000 6.000000
223038.69999695 536572.98999786 19.79000092 162.000000 2.000000 -2.000000 3.000000 3.000000 143024622.089478 154.000000 6.000000
223038.72999573 536572.94999695 30.72999954 162.000000 2.000000 -2.000000 3.000000 1.000000 143024622.089481 89.000000 6.000000
223038.63000488 536573.00000000 27.14999962 162.000000 2.000000 -2.000000 3.000000 2.000000 143024622.089481 19.000000 6.000000
223038.41000366 536573.09999847 19.84000015 162.000000 2.000000 -2.000000 3.000000 3.000000 143024622.089481 113.000000 6.000000
223038.44999695 536573.05999756 30.40999985 162.000000 2.000000 -2.000000 2.000000 1.000000 143024622.089483 96.000000 6.000000
223038.33000183 536573.12000275 26.54999924 162.000000 2.000000 -2.000000 2.000000 2.000000 143024622.089483 77.000000 6.000000
223038.13999939 536573.18000031 30.56999969 162.000000 2.000000 -2.000000 3.000000 1.000000 143024622.089486 180.000000 6.000000
223038.03999329 536573.23000336 27.15999985 162.000000 2.000000 -2.000000 3.000000 2.000000 143024622.089486 18.000000 6.000000
223037.80999756 536573.33999634 19.75000000 162.000000 2.000000 -2.000000 3.000000 3.000000 143024622.089486 249.000000 6.000000
223037.85000610 536573.30000305 30.50000000 162.000000 2.000000 -2.000000 3.000000 1.000000 143024622.089489 195.000000 6.000000
223037.72000122 536573.36000061 26.44000053 162.000000 2.000000 -2.000000 3.000000 2.000000 143024622.089489 181.000000 6.000000
223037.50999451 536573.44999695 19.75000000 162.000000 2.000000 -2.000000 3.000000 3.000000 143024622.089489 268.000000 6.000000
223037.55999756 536573.41000366 30.43000031 162.000000 2.000000 -2.000000 3.000000 1.000000 143024622.089491 410.000000 6.000000
223037.44999695 536573.45999908 27.18000031 162.000000 2.000000 -2.000000 3.000000 2.000000 143024622.089491 14.000000 6.000000
223037.21000671 536573.56999969 19.73999977 162.000000 2.000000 -2.000000 3.000000 3.000000 143024622.089491 207.000000 6.000000
223037.25999451 536573.52999878 30.39999962 162.000000 2.000000 -2.000000 2.000000 1.000000 143024622.089494 17.000000 6.000000
223037.13000488 536573.58999634 26.44000053 162.000000 2.000000 -2.000000 2.000000 2.000000 143024622.089494 502.000000 6.000000
223036.97000122 536573.63999939 30.29999924 162.000000 2.000000 -2.000000 3.000000 1.000000 143024622.089496 16.000000 6.000000
223036.85000610 536573.69999695 26.57999992 162.000000 2.000000 -2.000000 3.000000 2.000000 143024622.089496 21.000000 6.000000
223036.61999512 536573.80000305 19.76000023 162.000000 2.000000 -2.000000 3.000000 3.000000 143024622.089496 243.000000 6.000000
223036.69999695 536573.75000000 30.26000023 162.000000 2.000000 -2.000000 3.000000 1.000000 143024622.089499 22.000000 6.000000
223036.57000732 536573.80000305 26.54999924 162.000000 2.000000 -2.000000 3.000000 2.000000 143024622.089499 33.000000 6.000000
223036.33999634 536573.91000366 19.73999977 162.000000 2.000000 -2.000000 3.000000 3.000000 143024622.089499 104.000000 6.000000
223036.41000366 536573.86000061 30.20000076 162.000000 2.000000 -2.000000 3.000000 1.000000 143024622.089501 16.000000 6.000000
223036.27999878 536573.91999817 26.45000076 162.000000 2.000000 -2.000000 3.000000 2.000000 143024622.089501 156.000000 6.000000
223036.03999329 536574.02999878 19.63999939 162.000000 2.000000 -2.000000 3.000000 3.000000 143024622.089501 21.000000 6.000000
223036.11000061 536573.98000336 30.19000053 162.000000 2.000000 -2.000000 3.000000 1.000000 143024622.089504 36.000000 6.000000
223035.97999573 536574.04000092 26.57999992 162.000000 2.000000 -2.000000 3.000000 2.000000 143024622.089504 40.000000 6.000000
223035.72000122 536574.16000366 19.07999992 162.000000 2.000000 -2.000000 3.000000 3.000000 143024622.089504 22.000000 6.000000
223035.80000305 536574.09999847 30.09000015 162.000000 2.000000 -2.000000 1.000000 1.000000 143024622.089507 157.000000 6.000000
223035.52999878 536574.20999908 30.19000053 162.000000 2.000000 -2.000000 2.000000 1.000000 143024622.089509 576.000000 6.000000
223035.41999817 536574.26000214 27.19000053 162.000000 2.000000 -2.000000 2.000000 2.000000 143024622.089509 34.000000 6.000000
223035.22000122 536574.33000183 30.19000053 162.000000 2.000000 -2.000000 2.000000 1.000000 143024622.089512 307.000000 6.000000
223035.13000488 536574.37000275 27.59000015 162.000000 2.000000 -2.000000 2.000000 2.000000 143024622.089512 64.000000 6.000000
223034.94000244 536574.44000244 29.86000061 162.000000 2.000000 -2.000000 2.000000 1.000000 143024622.089515 104.000000 6.000000
223034.80999756 536574.50000000 26.54999924 162.000000 2.000000 -2.000000 2.000000 2.000000 143024622.089515 26.000000 6.000000
223034.64999390 536574.55000305 29.97999954 162.000000 2.000000 -2.000000 2.000000 1.000000 143024622.089517 23.000000 6.000000
223034.55000305 536574.59999847 27.21999931 162.000000 2.000000 -2.000000 2.000000 2.000000 143024622.089517 343.000000 6.000000
223034.38999939 536574.65000153 30.20999908 162.000000 2.000000 -2.000000 3.000000 1.000000 143024622.089520 22.000000 6.000000
223034.32000732 536574.68000031 28.42000008 162.000000 2.000000 -2.000000 3.000000 2.000000 143024622.089520 58.000000 6.000000
223034.28999329 536574.69999695 27.56999969 162.000000 2.000000 -2.000000 3.000000 3.000000 143024622.089520 215.000000 6.000000
223034.08000183 536574.76999664 30.27000046 162.000000 2.000000 -2.000000 2.000000 1.000000 143024622.089522 16.000000 6.000000
223034.00999451 536574.80999756 28.37000084 162.000000 2.000000 -2.000000 2.000000 2.000000 143024622.089522 497.000000 6.000000
223033.78999329 536574.88999939 30.35000038 162.000000 2.000000 -3.000000 2.000000 1.000000 143024622.089525 14.000000 6.000000
223033.71000671 536574.91999817 28.36000061 162.000000 2.000000 -3.000000 2.000000 2.000000 143024622.089525 398.000000 6.000000
223033.63999939 536574.93000031 33.95000076 162.000000 2.000000 -3.000000 1.000000 1.000000 143024622.089527 476.000000 6.000000
223033.21000671 536575.11000061 30.48999977 162.000000 2.000000 -3.000000 2.000000 1.000000 143024622.089530 26.000000 6.000000
223033.11999512 536575.16000366 28.28000069 162.000000 2.000000 -3.000000 2.000000 2.000000 143024622.089530 231.000000 6.000000
223032.92999268 536575.22000122 30.54999924 162.000000 2.000000 -3.000000 2.000000 1.000000 143024622.089533 96.000000 6.000000
223032.83000183 536575.26999664 28.32999992 162.000000 2.000000 -3.000000 2.000000 2.000000 143024622.089533 91.000000 6.000000
223032.66000366 536575.33000183 30.61000061 162.000000 2.000000 -3.000000 3.000000 1.000000 143024622.089535 47.000000 6.000000
223032.57000732 536575.37000275 28.64999962 162.000000 2.000000 -3.000000 3.000000 2.000000 143024622.089535 138.000000 6.000000
223032.49000549 536575.40000153 26.76000023 162.000000 2.000000 -3.000000 3.000000 3.000000 143024622.089535 17.000000 6.000000
223032.36999512 536575.44000244 30.63999939 162.000000 2.000000 -3.000000 2.000000 1.000000 143024622.089538 49.000000 6.000000
223032.27999878 536575.48999786 28.45000076 162.000000 2.000000 -3.000000 2.000000 2.000000 143024622.089538 168.000000 6.000000
223032.08000183 536575.55999756 30.78000069 162.000000 2.000000 -3.000000 2.000000 1.000000 143024622.089540 43.000000 6.000000
223031.94000244 536575.62000275 27.47999954 162.000000 2.000000 -3.000000 2.000000 2.000000 143024622.089540 147.000000 6.000000
223031.77999878 536575.66999817 30.90999985 162.000000 2.000000 -3.000000 2.000000 1.000000 143024622.089543 62.000000 6.000000
223031.66000366 536575.73000336 28.19000053 162.000000 2.000000 -3.000000 2.000000 2.000000 143024622.089543 27.000000 6.000000
223031.50999451 536575.77999878 31.07999992 162.000000 2.000000 -3.000000 1.000000 1.000000 143024622.089546 74.000000 6.000000
223031.21000671 536575.90000153 31.23999977 162.000000 2.000000 -3.000000 2.000000 1.000000 143024622.089548 79.000000 6.000000
223030.94000244 536576.00000000 31.36000061 162.000000 2.000000 -3.000000 2.000000 1.000000 143024622.089551 53.000000 6.000000
223030.75000000 536576.08999634 27.18000031 162.000000 2.000000 -3.000000 2.000000 2.000000 143024622.089551 34.000000 6.000000
223030.66000366 536576.11000061 31.36000061 162.000000 2.000000 -3.000000 2.000000 1.000000 143024622.089553 72.000000 6.000000
223030.38000488 536576.22000122 31.34000015 162.000000 2.000000 -3.000000 3.000000 1.000000 143024622.089556 95.000000 6.000000
223030.16999817 536576.31999969 26.73999977 162.000000 2.000000 -3.000000 3.000000 2.000000 143024622.089556 20.000000 6.000000
223030.10000610 536576.33000183 31.79999924 162.000000 2.000000 -3.000000 2.000000 1.000000 143024622.089558 54.000000 6.000000
223029.80999756 536576.44000244 32.04000092 162.000000 2.000000 -3.000000 2.000000 1.000000 143024622.089561 52.000000 6.000000
223029.52999878 536576.55000305 32.15999985 162.000000 2.000000 -3.000000 2.000000 1.000000 143024622.089564 105.000000 6.000000
223029.44999695 536576.58999634 30.55999947 162.000000 2.000000 -3.000000 2.000000 2.000000 143024622.089564 42.000000 6.000000
223029.25000000 536576.66000366 32.38999939 162.000000 2.000000 -3.000000 2.000000 1.000000 143024622.089566 85.000000 6.000000
223028.97000122 536576.76999664 32.59999847 162.000000 2.000000 -3.000000 2.000000 1.000000 143024622.089569 19.000000 6.000000
223028.71000671 536576.87000275 32.81000137 162.000000 2.000000 -3.000000 2.000000 1.000000 143024622.089571 34.000000 6.000000
223028.44000244 536576.98000336 33.13999939 162.000000 2.000000 -3.000000 3.000000 1.000000 143024622.089574 17.000000 6.000000
223028.25999451 536577.05000305 29.70000076 162.000000 2.000000 -3.000000 3.000000 2.000000 143024622.089574 13.000000 6.000000
223028.16000366 536577.08999634 33.31999969 162.000000 2.000000 -3.000000 2.000000 1.000000 143024622.089577 20.000000 6.000000
223027.87000275 536577.19999695 33.63999939 162.000000 2.000000 -3.000000 2.000000 1.000000 143024622.089579 64.000000 6.000000
223027.58999634 536577.30999756 33.63999939 162.000000 2.000000 -3.000000 1.000000 1.000000 143024622.089582 66.000000 6.000000
223027.30999756 536577.41999817 34.18000031 162.000000 2.000000 -3.000000 2.000000 1.000000 143024622.089584 26.000000 6.000000
223027.02999878 536577.52999878 33.93000031 162.000000 2.000000 -3.000000 2.000000 1.000000 143024622.089587 49.000000 6.000000
223046.39999390 536570.20999908 13.77999973 162.000000 2.000000 -1.000000 1.000000 1.000000 143024622.095547 196.000000 6.000000
223046.36999512 536570.18000031 33.79000092 162.000000 2.000000 -1.000000 2.000000 1.000000 143024622.095549 178.000000 6.000000
223046.10000610 536570.33000183 13.51000023 162.000000 2.000000 -1.000000 2.000000 2.000000 143024622.095549 17.000000 6.000000
223046.03999329 536570.30999756 32.36999893 162.000000 2.000000 -1.000000 2.000000 1.000000 143024622.095552 189.000000 6.000000
223045.77000427 536570.44999695 13.55000019 162.000000 2.000000 -1.000000 2.000000 2.000000 143024622.095552 35.000000 6.000000
223045.77000427 536570.41999817 32.16999817 162.000000 2.000000 -1.000000 2.000000 1.000000 143024622.095555 100.000000 6.000000
223045.49000549 536570.55999756 13.60000038 162.000000 2.000000 -1.000000 2.000000 2.000000 143024622.095555 71.000000 6.000000
223045.55000305 536570.48999786 38.36000061 162.000000 2.000000 -1.000000 2.000000 1.000000 143024622.095557 42.000000 6.000000
223045.16999817 536570.69000244 13.64000034 162.000000 2.000000 -1.000000 2.000000 2.000000 143024622.095557 16.000000 6.000000
223045.27999878 536570.58999634 38.59000015 162.000000 2.000000 -1.000000 1.000000 1.000000 143024622.095560 117.000000 6.000000
223045.02000427 536570.69999695 38.74000168 162.000000 2.000000 -1.000000 1.000000 1.000000 143024622.095562 26.000000 6.000000
223044.72999573 536570.80999756 37.81000137 162.000000 2.000000 -1.000000 1.000000 1.000000 143024622.095565 29.000000 6.000000
223044.41000366 536570.94000244 37.02999878 162.000000 2.000000 -1.000000 1.000000 1.000000 143024622.095567 109.000000 6.000000
223044.10000610 536571.05999756 36.34999847 162.000000 2.000000 -1.000000 1.000000 1.000000 143024622.095570 136.000000 6.000000
223043.80999756 536571.18000031 35.86000061 162.000000 2.000000 -1.000000 2.000000 1.000000 143024622.095573 129.000000 6.000000
223043.77000427 536571.19999695 33.75999832 162.000000 2.000000 -1.000000 2.000000 2.000000 143024622.095573 25.000000 6.000000
223043.50999451 536571.30000305 35.24000168 162.000000 2.000000 -1.000000 3.000000 1.000000 143024622.095575 28.000000 6.000000
223043.36000061 536571.37000275 27.61000061 162.000000 2.000000 -1.000000 3.000000 2.000000 143024622.095575 41.000000 6.000000
223043.50999451 536571.30000305 35.24000168 162.000000 2.000000 -1.000000 3.000000 3.000000 143024622.095575 28.000000 6.000000
223043.21000671 536571.41000366 34.83000183 162.000000 2.000000 -1.000000 2.000000 1.000000 143024622.095578 45.000000 6.000000
223043.19000244 536571.43000031 33.47999954 162.000000 2.000000 -1.000000 2.000000 2.000000 143024622.095578 17.000000 6.000000
223042.94000244 536571.51999664 34.43000031 162.000000 2.000000 -1.000000 2.000000 1.000000 143024622.095580 125.000000 6.000000
223042.80000305 536571.58999634 27.70999908 162.000000 2.000000 -1.000000 2.000000 2.000000 143024622.095580 13.000000 6.000000
223042.64999390 536571.62999725 34.11999893 162.000000 2.000000 -1.000000 2.000000 1.000000 143024622.095583 64.000000 6.000000
223042.61999512 536571.65000153 32.61999893 162.000000 2.000000 -1.000000 2.000000 2.000000 143024622.095583 84.000000 6.000000
223042.35000610 536571.75000000 33.77000046 162.000000 2.000000 -1.000000 1.000000 1.000000 143024622.095586 74.000000 6.000000
223042.02999878 536571.87999725 33.27999878 162.000000 2.000000 -1.000000 3.000000 1.000000 143024622.095588 132.000000 6.000000
223041.89999390 536571.94000244 27.45000076 162.000000 2.000000 -1.000000 3.000000 2.000000 143024622.095588 11.000000 6.000000
223041.86999512 536571.94999695 26.40999985 162.000000 2.000000 -1.000000 3.000000 3.000000 143024622.095588 36.000000 6.000000
223041.75000000 536571.98999786 33.24000168 162.000000 2.000000 -1.000000 2.000000 1.000000 143024622.095591 58.000000 6.000000
223041.41999817 536572.15000153 19.11000061 162.000000 2.000000 -1.000000 2.000000 2.000000 143024622.095591 10.000000 6.000000
223041.44000244 536572.11000061 32.88000107 162.000000 2.000000 -2.000000 2.000000 1.000000 143024622.095594 27.000000 6.000000
223041.27999878 536572.19000244 26.39999962 162.000000 2.000000 -2.000000 2.000000 2.000000 143024622.095594 12.000000 6.000000
223041.16999817 536572.22000122 32.65000153 162.000000 2.000000 -2.000000 2.000000 1.000000 143024622.095596 23.000000 6.000000
223041.00999451 536572.29000092 26.43000031 162.000000 2.000000 -2.000000 2.000000 2.000000 143024622.095596 17.000000 6.000000
223040.86999512 536572.33999634 32.41999817 162.000000 2.000000 -2.000000 2.000000 1.000000 143024622.095598 41.000000 6.000000
223040.72000122 536572.41000366 26.42000008 162.000000 2.000000 -2.000000 2.000000 2.000000 143024622.095598 88.000000 6.000000
223040.58999634 536572.44999695 32.15999985 162.000000 2.000000 -2.000000 3.000000 1.000000 143024622.095601 52.000000 6.000000
223040.47000122 536572.50000000 27.54000092 162.000000 2.000000 -2.000000 3.000000 2.000000 143024622.095601 17.000000 6.000000
223040.44999695 536572.51000214 26.53000069 162.000000 2.000000 -2.000000 3.000000 3.000000 143024622.095601 54.000000 6.000000
223040.27999878 536572.56999969 32.02999878 162.000000 2.000000 -2.000000 2.000000 1.000000 143024622.095604 23.000000 6.000000
223040.13999939 536572.63999939 26.55999947 162.000000 2.000000 -2.000000 2.000000 2.000000 143024622.095604 315.000000 6.000000
223039.99000549 536572.68000031 31.85000038 162.000000 2.000000 -2.000000 3.000000 1.000000 143024622.095606 31.000000 6.000000
223039.86999512 536572.73999786 27.62000084 162.000000 2.000000 -2.000000 3.000000 2.000000 143024622.095606 35.000000 6.000000
223039.83999634 536572.75000000 26.50000000 162.000000 2.000000 -2.000000 3.000000 3.000000 143024622.095606 96.000000 6.000000
223039.69999695 536572.80000305 31.69000053 162.000000 2.000000 -2.000000 4.000000 1.000000 143024622.095609 18.000000 6.000000
223039.55999756 536572.86000061 26.73999977 162.000000 2.000000 -2.000000 4.000000 2.000000 143024622.095609 40.000000 6.000000
223039.52999878 536572.87000275 25.87999916 162.000000 2.000000 -2.000000 4.000000 3.000000 143024622.095609 46.000000 6.000000
223039.52999878 536572.87000275 25.87999916 162.000000 2.000000 -2.000000 4.000000 4.000000 143024622.095609 46.000000 6.000000
223039.38000488 536572.91999817 31.09000015 162.000000 2.000000 -2.000000 1.000000 1.000000 143024622.095612 130.000000 6.000000
223039.10000610 536573.02999878 31.27000046 162.000000 2.000000 -2.000000 2.000000 1.000000 143024622.095614 34.000000 6.000000
223038.97999573 536573.08999634 27.20000076 162.000000 2.000000 -2.000000 2.000000 2.000000 143024622.095614 20.000000 6.000000
223038.83000183 536573.13999939 31.25000000 162.000000 2.000000 -2.000000 3.000000 1.000000 143024622.095617 98.000000 6.000000
223038.69000244 536573.19999695 26.46999931 162.000000 2.000000 -2.000000 3.000000 2.000000 143024622.095617 82.000000 6.000000
223038.49000549 536573.29000092 19.93000031 162.000000 2.000000 -2.000000 3.000000 3.000000 143024622.095617 177.000000 6.000000
223038.52999878 536573.26000214 31.04999924 162.000000 2.000000 -2.000000 2.000000 1.000000 143024622.095619 86.000000 6.000000
223038.39999390 536573.31999969 26.54999924 162.000000 2.000000 -2.000000 2.000000 2.000000 143024622.095619 28.000000 6.000000
223038.24000549 536573.37000275 31.04000092 162.000000 2.000000 -2.000000 3.000000 1.000000 143024622.095622 302.000000 6.000000
223038.11999512 536573.43000031 27.12999916 162.000000 2.000000 -2.000000 3.000000 2.000000 143024622.095622 26.000000 6.000000
223038.08999634 536573.44000244 26.39999962 162.000000 2.000000 -2.000000 3.000000 3.000000 143024622.095622 141.000000 6.000000
223037.92999268 536573.48999786 30.94000053 162.000000 2.000000 -2.000000 3.000000 1.000000 143024622.095625 217.000000 6.000000
223037.80999756 536573.55000305 27.15999985 162.000000 2.000000 -2.000000 3.000000 2.000000 143024622.095625 30.000000 6.000000
223037.55000305 536573.66999817 19.09000015 162.000000 2.000000 -2.000000 3.000000 3.000000 143024622.095625 77.000000 6.000000
223037.66000366 536573.59999847 30.88999939 162.000000 2.000000 -2.000000 3.000000 1.000000 143024622.095627 171.000000 6.000000
223037.53999329 536573.65000153 27.12999916 162.000000 2.000000 -2.000000 3.000000 2.000000 143024622.095627 45.000000 6.000000
223037.27999878 536573.76999664 19.10000038 162.000000 2.000000 -2.000000 3.000000 3.000000 143024622.095627 59.000000 6.000000
223037.35000610 536573.72000122 30.80999947 162.000000 2.000000 -2.000000 2.000000 1.000000 143024622.095630 291.000000 6.000000
223037.19999695 536573.79000092 26.44000053 162.000000 2.000000 -2.000000 2.000000 2.000000 143024622.095630 359.000000 6.000000
223037.07000732 536573.83000183 30.79000092 162.000000 2.000000 -2.000000 2.000000 1.000000 143024622.095632 241.000000 6.000000
223036.69999695 536574.00000000 19.76000023 162.000000 2.000000 -2.000000 2.000000 2.000000 143024622.095632 34.000000 6.000000
223036.77999878 536573.94000244 30.75000000 162.000000 2.000000 -2.000000 3.000000 1.000000 143024622.095635 328.000000 6.000000
223036.63000488 536574.01000214 26.43000031 162.000000 2.000000 -2.000000 3.000000 2.000000 143024622.095635 83.000000 6.000000
223036.39999390 536574.11000061 19.73999977 162.000000 2.000000 -2.000000 3.000000 3.000000 143024622.095635 64.000000 6.000000
223036.50999451 536574.05000305 30.65999985 162.000000 2.000000 -2.000000 2.000000 1.000000 143024622.095637 691.000000 6.000000
223036.36000061 536574.12000275 26.50000000 162.000000 2.000000 -2.000000 2.000000 2.000000 143024622.095637 53.000000 6.000000
223036.19000244 536574.16999817 30.64999962 162.000000 2.000000 -2.000000 2.000000 1.000000 143024622.095640 751.000000 6.000000
223036.05000305 536574.23999786 26.69000053 162.000000 2.000000 -2.000000 2.000000 2.000000 143024622.095640 85.000000 6.000000
223035.88999939 536574.29000092 30.59000015 162.000000 2.000000 -2.000000 1.000000 1.000000 143024622.095643 655.000000 6.000000
223035.61000061 536574.40000153 30.72999954 162.000000 2.000000 -2.000000 3.000000 1.000000 143024622.095645 214.000000 6.000000
223035.60000610 536574.41000366 30.25000000 162.000000 2.000000 -2.000000 3.000000 2.000000 143024622.095645 143.000000 6.000000
223035.46000671 536574.47000122 26.46999931 162.000000 2.000000 -2.000000 3.000000 3.000000 143024622.095645 32.000000 6.000000
223035.30999756 536574.51999664 30.54999924 162.000000 2.000000 -2.000000 1.000000 1.000000 143024622.095648 643.000000 6.000000
223035.02999878 536574.62999725 30.57999992 162.000000 2.000000 -2.000000 2.000000 1.000000 143024622.095650 482.000000 6.000000
223034.88000488 536574.69000244 26.61000061 162.000000 2.000000 -2.000000 2.000000 2.000000 143024622.095650 12.000000 6.000000
223034.75000000 536574.73999786 30.64999962 162.000000 2.000000 -2.000000 2.000000 1.000000 143024622.095653 225.000000 6.000000
223034.61000061 536574.80000305 26.76000023 162.000000 2.000000 -2.000000 2.000000 2.000000 143024622.095653 20.000000 6.000000
223034.47000122 536574.84999847 30.70999908 162.000000 2.000000 -2.000000 2.000000 1.000000 143024622.095655 114.000000 6.000000
223034.33000183 536574.91000366 27.09000015 162.000000 2.000000 -2.000000 2.000000 2.000000 143024622.095655 141.000000 6.000000
223034.17999268 536574.95999908 30.81999969 162.000000 2.000000 -2.000000 2.000000 1.000000 143024622.095658 19.000000 6.000000
223034.08000183 536575.01000214 28.12000084 162.000000 2.000000 -2.000000 2.000000 2.000000 143024622.095658 283.000000 6.000000
223033.88000488 536575.08000183 30.92000008 162.000000 2.000000 -3.000000 2.000000 1.000000 143024622.095661 42.000000 6.000000
223033.77000427 536575.12999725 28.12000084 162.000000 2.000000 -3.000000 2.000000 2.000000 143024622.095661 198.000000 6.000000
223033.72000122 536575.12999725 33.90999985 162.000000 2.000000 -3.000000 1.000000 1.000000 143024622.095663 459.000000 6.000000
223033.28999329 536575.30999756 30.92000008 162.000000 2.000000 -3.000000 2.000000 1.000000 143024622.095666 59.000000 6.000000
223033.17999268 536575.36000061 28.20999908 162.000000 2.000000 -3.000000 2.000000 2.000000 143024622.095666 281.000000 6.000000
223033.02000427 536575.41000366 31.01000023 162.000000 2.000000 -3.000000 2.000000 1.000000 143024622.095668 70.000000 6.000000
223032.91000366 536575.45999908 28.31999969 162.000000 2.000000 -3.000000 2.000000 2.000000 143024622.095668 195.000000 6.000000
223032.74000549 536575.51999664 31.05999947 162.000000 2.000000 -3.000000 2.000000 1.000000 143024622.095671 45.000000 6.000000
223032.63999939 536575.56999969 28.71999931 162.000000 2.000000 -3.000000 2.000000 2.000000 143024622.095671 100.000000 6.000000
223032.47000122 536575.62999725 31.19000053 162.000000 2.000000 -3.000000 2.000000 1.000000 143024622.095673 41.000000 6.000000
223032.35000610 536575.69000244 28.29000092 162.000000 2.000000 -3.000000 2.000000 2.000000 143024622.095673 140.000000 6.000000
223032.16999817 536575.75000000 31.27000046 162.000000 2.000000 -3.000000 2.000000 1.000000 143024622.095676 53.000000 6.000000
223031.99000549 536575.83000183 27.35000038 162.000000 2.000000 -3.000000 2.000000 2.000000 143024622.095676 132.000000 6.000000
223031.88000488 536575.86000061 31.39999962 162.000000 2.000000 -3.000000 2.000000 1.000000 143024622.095679 54.000000 6.000000
223031.72999573 536575.93000031 28.18000031 162.000000 2.000000 -3.000000 2.000000 2.000000 143024622.095679 22.000000 6.000000
223031.60000610 536575.97000122 31.55999947 162.000000 2.000000 -3.000000 2.000000 1.000000 143024622.095681 78.000000 6.000000
223031.41999817 536576.05000305 27.42000008 162.000000 2.000000 -3.000000 2.000000 2.000000 143024622.095681 63.000000 6.000000
223031.30000305 536576.08999634 31.47999954 162.000000 2.000000 -3.000000 2.000000 1.000000 143024622.095684 67.000000 6.000000
223031.00999451 536576.19999695 31.37999916 162.000000 2.000000 -3.000000 1.000000 1.000000 143024622.095687 90.000000 6.000000
223030.75999451 536576.30000305 31.98999977 162.000000 2.000000 -3.000000 3.000000 1.000000 143024622.095689 14.000000 6.000000
223030.52000427 536576.40000153 26.79000092 162.000000 2.000000 -3.000000 3.000000 2.000000 143024622.095689 39.000000 6.000000
223030.19999695 536576.51999664 32.29999924 162.000000 2.000000 -3.000000 2.000000 1.000000 143024622.095694 14.000000 6.000000
223029.91000366 536576.62999725 32.52000046 162.000000 2.000000 -3.000000 2.000000 1.000000 143024622.095697 26.000000 6.000000
223029.63000488 536576.73999786 32.59999847 162.000000 2.000000 -3.000000 1.000000 1.000000 143024622.095699 82.000000 6.000000
223029.35000610 536576.84999847 32.91999817 162.000000 2.000000 -3.000000 2.000000 1.000000 143024622.095702 21.000000 6.000000
223029.08000183 536576.95999908 33.11999893 162.000000 2.000000 -3.000000 2.000000 1.000000 143024622.095705 17.000000 6.000000
223028.80999756 536577.05999756 33.38999939 162.000000 2.000000 -3.000000 2.000000 1.000000 143024622.095707 21.000000 6.000000
223028.55000305 536577.16000366 33.75000000 162.000000 2.000000 -3.000000 3.000000 1.000000 143024622.095710 22.000000 6.000000
223028.33999634 536577.25000000 29.70999908 162.000000 2.000000 -3.000000 3.000000 2.000000 143024622.095710 29.000000 6.000000
223028.25999451 536577.26999664 33.81999969 162.000000 2.000000 -3.000000 2.000000 1.000000 143024622.095712 105.000000 6.000000
223027.97000122 536577.38999939 34.15999985 162.000000 2.000000 -3.000000 3.000000 1.000000 143024622.095715 23.000000 6.000000
223027.94000244 536577.40000153 33.56999969 162.000000 2.000000 -3.000000 3.000000 2.000000 143024622.095715 52.000000 6.000000
223027.72000122 536577.48999786 34.54999924 162.000000 2.000000 -3.000000 3.000000 1.000000 143024622.095718 24.000000 6.000000
223027.66999817 536577.51000214 33.63000107 162.000000 2.000000 -3.000000 3.000000 2.000000 143024622.095718 32.000000 6.000000
223027.40000153 536577.61000061 34.31999969 162.000000 2.000000 -3.000000 2.000000 1.000000 143024622.095720 134.000000 6.000000
223046.53999329 536570.45999908 13.85999966 162.000000 2.000000 -1.000000 1.000000 1.000000 143024622.101683 543.000000 6.000000
223046.22999573 536570.58000183 13.48999977 162.000000 2.000000 -1.000000 1.000000 1.000000 143024622.101685 71.000000 6.000000
223046.19000244 536570.55000305 33.90000153 162.000000 2.000000 -1.000000 2.000000 1.000000 143024622.101688 142.000000 6.000000
223045.91000366 536570.70999908 13.53999996 162.000000 2.000000 -1.000000 2.000000 2.000000 143024622.101688 70.000000 6.000000
223045.61999512 536570.81999969 13.60999966 162.000000 2.000000 -1.000000 1.000000 1.000000 143024622.101690 150.000000 6.000000
223045.58000183 536570.80000305 31.81999969 162.000000 2.000000 -1.000000 2.000000 1.000000 143024622.101693 100.000000 6.000000
223045.30000305 536570.94000244 13.65999985 162.000000 2.000000 -1.000000 2.000000 2.000000 143024622.101693 96.000000 6.000000
223045.28999329 536570.91000366 30.43000031 162.000000 2.000000 -1.000000 2.000000 1.000000 143024622.101696 178.000000 6.000000
223045.02999878 536571.05000305 13.71000004 162.000000 2.000000 -1.000000 2.000000 2.000000 143024622.101696 20.000000 6.000000
223045.13999939 536570.95999908 38.61000061 162.000000 2.000000 -1.000000 1.000000 1.000000 143024622.101698 232.000000 6.000000
223044.88000488 536571.05999756 39.04999924 162.000000 2.000000 -1.000000 3.000000 1.000000 143024622.101701 44.000000 6.000000
223044.74000549 536571.12999725 30.84000015 162.000000 2.000000 -1.000000 3.000000 2.000000 143024622.101701 34.000000 6.000000
223044.66999817 536571.16999817 26.93000031 162.000000 2.000000 -1.000000 3.000000 3.000000 143024622.101701 124.000000 6.000000
223044.57000732 536571.18000031 38.97999954 162.000000 2.000000 -1.000000 1.000000 1.000000 143024622.101703 28.000000 6.000000
223044.27000427 536571.30000305 38.04000092 162.000000 2.000000 -1.000000 1.000000 1.000000 143024622.101706 26.000000 6.000000
223043.97000122 536571.41999817 37.20999908 162.000000 2.000000 -1.000000 1.000000 1.000000 143024622.101709 40.000000 6.000000
223043.66999817 536571.54000092 36.59999847 162.000000 2.000000 -1.000000 1.000000 1.000000 143024622.101711 129.000000 6.000000
223043.36999512 536571.65000153 36.15000153 162.000000 2.000000 -1.000000 2.000000 1.000000 143024622.101714 135.000000 6.000000
223043.16999817 536571.75000000 26.28000069 162.000000 2.000000 -1.000000 2.000000 2.000000 143024622.101714 24.000000 6.000000
223043.10000610 536571.76000214 35.68999863 162.000000 2.000000 -1.000000 2.000000 1.000000 143024622.101716 25.000000 6.000000
223042.91999817 536571.84999847 27.50000000 162.000000 2.000000 -1.000000 2.000000 2.000000 143024622.101716 11.000000 6.000000
223042.80999756 536571.87999725 35.06999969 162.000000 2.000000 -1.000000 2.000000 1.000000 143024622.101719 32.000000 6.000000
223042.63999939 536571.95999908 27.50000000 162.000000 2.000000 -1.000000 2.000000 2.000000 143024622.101719 16.000000 6.000000
223042.50000000 536572.00000000 34.68000031 162.000000 2.000000 -1.000000 1.000000 1.000000 143024622.101721 46.000000 6.000000
223042.19000244 536572.12000275 34.40999985 162.000000 2.000000 -1.000000 5.000000 1.000000 143024622.101724 29.000000 6.000000
223042.16999817 536572.12999725 33.84000015 162.000000 2.000000 -1.000000 5.000000 2.000000 143024622.101724 40.000000 6.000000
223042.02999878 536572.19999695 27.46999931 162.000000 2.000000 -1.000000 5.000000 3.000000 143024622.101724 9.000000 6.000000
223042.00000000 536572.20999908 26.44000053 162.000000 2.000000 -1.000000 5.000000 4.000000 143024622.101724 14.000000 6.000000
223041.96000671 536572.23000336 24.70000076 162.000000 2.000000 -1.000000 5.000000 5.000000 143024622.101724 11.000000 6.000000
223041.91000366 536572.23000336 34.02000046 162.000000 2.000000 -1.000000 3.000000 1.000000 143024622.101727 20.000000 6.000000
223041.88999939 536572.23999786 33.16999817 162.000000 2.000000 -1.000000 3.000000 2.000000 143024622.101727 31.000000 6.000000
223041.69000244 536572.33999634 24.65999985 162.000000 2.000000 -1.000000 3.000000 3.000000 143024622.101727 109.000000 6.000000
223041.58999634 536572.36000061 33.50999832 162.000000 2.000000 -2.000000 2.000000 1.000000 143024622.101729 51.000000 6.000000
223041.38000488 536572.45999908 24.64999962 162.000000 2.000000 -2.000000 2.000000 2.000000 143024622.101729 171.000000 6.000000
223041.32000732 536572.45999908 33.47999954 162.000000 2.000000 -2.000000 2.000000 1.000000 143024622.101732 121.000000 6.000000
223041.10000610 536572.56999969 24.65999985 162.000000 2.000000 -2.000000 2.000000 2.000000 143024622.101732 25.000000 6.000000
