//X Y Z Point_Source_ID Scan_Angle_Rank Flightline_Edge Number_of_Returns Return_Number Time Intensity Classification
236460.92999268 548266.90000153 31.53000069 168.000000 2.000000 0.000000 2.000000 1.000000 234371016.678191 41.000000 1.000000
236460.10998535 548266.86000061 18.79999924 168.000000 2.000000 0.000000 2.000000 2.000000 234371016.678191 80.000000 1.000000
236461.10998535 548266.63999939 31.55999947 168.000000 2.000000 0.000000 2.000000 1.000000 234371016.678194 37.000000 1.000000
236461.32000732 548266.34999847 31.60000038 168.000000 2.000000 0.000000 2.000000 1.000000 234371016.678197 29.000000 1.000000
236461.50000000 548266.08999634 31.60000038 168.000000 2.000000 0.000000 2.000000 1.000000 234371016.678199 52.000000 1.000000
236461.69000244 548265.81999969 31.57999992 168.000000 2.000000 0.000000 2.000000 1.000000 234371016.678201 109.000000 1.000000
236461.86999512 548265.55999756 31.65999985 168.000000 2.000000 0.000000 2.000000 1.000000 234371016.678204 33.000000 1.000000
236462.08001709 548265.26999664 31.69000053 168.000000 2.000000 0.000000 2.000000 1.000000 234371016.678207 26.000000 1.000000
236462.27001953 548264.98999786 31.71999931 168.000000 2.000000 0.000000 2.000000 1.000000 234371016.678210 43.000000 1.000000
236462.46002197 548264.72000122 31.76000023 168.000000 2.000000 0.000000 3.000000 1.000000 234371016.678212 39.000000 1.000000
236462.40002441 548264.70999908 30.76000023 168.000000 2.000000 0.000000 3.000000 2.000000 234371016.678212 49.000000 1.000000
236462.65997314 548264.44000244 31.81999969 168.000000 2.000000 0.000000 2.000000 1.000000 234371016.678215 42.000000 1.000000
236462.84997559 548264.16999817 31.87999916 168.000000 2.000000 0.000000 2.000000 1.000000 234371016.678217 76.000000 1.000000
236463.03002930 548263.90999985 31.95000076 168.000000 2.000000 0.000000 2.000000 1.000000 234371016.678220 62.000000 1.000000
236463.22998047 548263.63000107 32.00999832 168.000000 1.000000 0.000000 2.000000 1.000000 234371016.678222 76.000000 1.000000
236463.41998291 548263.36000061 32.11000061 168.000000 1.000000 0.000000 2.000000 1.000000 234371016.678225 46.000000 1.000000
236463.63000488 548263.06999969 32.18000031 168.000000 1.000000 0.000000 2.000000 1.000000 234371016.678228 141.000000 1.000000
236463.82000732 548262.81000137 32.29000092 168.000000 1.000000 0.000000 3.000000 1.000000 234371016.678230 32.000000 1.000000
236463.73999023 548262.79000092 31.06999969 168.000000 1.000000 0.000000 3.000000 2.000000 234371016.678230 42.000000 1.000000
236464.02001953 548262.52000046 32.34999847 168.000000 1.000000 0.000000 2.000000 1.000000 234371016.678233 53.000000 1.000000
236464.21002197 548262.25999832 32.47000122 168.000000 1.000000 0.000000 2.000000 1.000000 234371016.678235 103.000000 1.000000
236464.40002441 548261.99000168 32.58000183 168.000000 1.000000 0.000000 2.000000 1.000000 234371016.678238 65.000000 1.000000
236464.59002686 548261.72999954 32.68999863 168.000000 1.000000 0.000000 2.000000 1.000000 234371016.678241 59.000000 1.000000
236464.79998779 548261.43999863 32.81999969 168.000000 1.000000 0.000000 2.000000 1.000000 234371016.678243 42.000000 1.000000
236465.00000000 548261.16999817 32.95000076 168.000000 1.000000 0.000000 2.000000 1.000000 234371016.678246 27.000000 1.000000
236465.19000244 548260.90000153 33.06999969 168.000000 1.000000 0.000000 2.000000 1.000000 234371016.678248 17.000000 1.000000
236465.39001465 548260.61999893 33.25000000 168.000000 1.000000 0.000000 2.000000 1.000000 234371016.678251 49.000000 1.000000
236465.59002686 548260.34999847 33.34999847 168.000000 1.000000 0.000000 2.000000 1.000000 234371016.678253 105.000000 1.000000
236465.78002930 548260.09000015 33.54000092 168.000000 1.000000 0.000000 2.000000 1.000000 234371016.678256 45.000000 1.000000
236465.96997070 548259.83000183 33.72999954 168.000000 1.000000 0.000000 2.000000 1.000000 234371016.678259 40.000000 1.000000
236466.17999268 548259.56000137 33.90999985 168.000000 1.000000 0.000000 2.000000 1.000000 234371016.678261 68.000000 1.000000
236466.39001465 548259.27000046 34.09999847 168.000000 1.000000 0.000000 3.000000 1.000000 234371016.678264 55.000000 1.000000
236466.34997559 548259.25000000 33.31000137 168.000000 1.000000 0.000000 3.000000 2.000000 234371016.678264 51.000000 1.000000
236466.58001709 548259.00999832 34.27999878 168.000000 1.000000 0.000000 2.000000 1.000000 234371016.678266 46.000000 1.000000
236466.78997803 548258.72000122 34.50000000 168.000000 1.000000 0.000000 2.000000 1.000000 234371016.678269 48.000000 1.000000
236466.96997070 548258.47999954 34.68999863 168.000000 1.000000 0.000000 2.000000 1.000000 234371016.678272 132.000000 1.000000
236467.16998291 548258.20999908 34.88000107 168.000000 1.000000 0.000000 2.000000 1.000000 234371016.678274 27.000000 1.000000
236467.35998535 548257.95999908 35.11000061 168.000000 1.000000 0.000000 2.000000 1.000000 234371016.678277 61.000000 1.000000
236467.57000732 548257.66999817 35.31000137 168.000000 1.000000 0.000000 2.000000 1.000000 234371016.678279 49.000000 1.000000
236467.78002930 548257.40000153 35.61000061 168.000000 1.000000 0.000000 2.000000 1.000000 234371016.678282 85.000000 1.000000
236467.97998047 548257.13999939 35.88000107 168.000000 1.000000 0.000000 2.000000 1.000000 234371016.678284 38.000000 1.000000
236468.19000244 548256.86000061 36.13000107 168.000000 0.000000 0.000000 2.000000 1.000000 234371016.678287 66.000000 1.000000
236468.39001465 548256.59999847 36.43000031 168.000000 0.000000 0.000000 2.000000 1.000000 234371016.678290 27.000000 1.000000
236468.58001709 548256.34999847 36.66999817 168.000000 0.000000 0.000000 2.000000 1.000000 234371016.678292 52.000000 1.000000
236468.78002930 548256.09000015 36.95000076 168.000000 0.000000 0.000000 2.000000 1.000000 234371016.678294 58.000000 1.000000
236457.55999756 548271.16000366 32.09999847 168.000000 3.000000 0.000000 2.000000 1.000000 234371016.684068 104.000000 1.000000
236457.76000977 548270.86000061 32.02999878 168.000000 3.000000 0.000000 2.000000 1.000000 234371016.684071 88.000000 1.000000
236457.95001221 548270.58000183 31.96999931 168.000000 3.000000 0.000000 2.000000 1.000000 234371016.684074 133.000000 1.000000
236458.14001465 548270.30999756 31.89999962 168.000000 2.000000 0.000000 2.000000 1.000000 234371016.684077 40.000000 1.000000
236458.32000732 548270.02999878 31.81999969 168.000000 2.000000 0.000000 2.000000 1.000000 234371016.684079 49.000000 1.000000
236458.51000977 548269.76000214 31.79000092 168.000000 2.000000 0.000000 2.000000 1.000000 234371016.684082 52.000000 1.000000
236458.69000244 548269.50000000 31.75000000 168.000000 2.000000 0.000000 2.000000 1.000000 234371016.684084 181.000000 1.000000
236458.86999512 548269.23000336 31.70000076 168.000000 2.000000 0.000000 2.000000 1.000000 234371016.684087 63.000000 1.000000
236459.05999756 548268.94999695 31.60000038 168.000000 2.000000 0.000000 2.000000 1.000000 234371016.684089 87.000000 1.000000
236459.26000977 548268.66000366 31.61000061 168.000000 2.000000 0.000000 2.000000 1.000000 234371016.684092 51.000000 1.000000
236459.44000244 548268.40000153 31.56999969 168.000000 2.000000 0.000000 2.000000 1.000000 234371016.684095 26.000000 1.000000
236459.64001465 548268.11000061 31.55999947 168.000000 2.000000 0.000000 2.000000 1.000000 234371016.684097 33.000000 1.000000
236459.82000732 548267.84999847 31.54999924 168.000000 2.000000 0.000000 2.000000 1.000000 234371016.684100 89.000000 1.000000
236460.01000977 548267.56999969 31.51000023 168.000000 2.000000 0.000000 2.000000 1.000000 234371016.684102 21.000000 1.000000
236459.39001465 548267.55999756 22.15999985 168.000000 2.000000 0.000000 2.000000 2.000000 234371016.684102 87.000000 1.000000
236460.17999268 548267.31999969 31.52000046 168.000000 2.000000 0.000000 2.000000 1.000000 234371016.684105 32.000000 1.000000
236460.39001465 548267.01999664 31.52000046 168.000000 2.000000 0.000000 2.000000 1.000000 234371016.684108 60.000000 1.000000
236460.58001709 548266.73999786 31.51000023 168.000000 2.000000 0.000000 3.000000 1.000000 234371016.684110 59.000000 1.000000
236459.77001953 548266.69999695 18.94000053 168.000000 2.000000 0.000000 3.000000 2.000000 234371016.684110 54.000000 1.000000
236460.77001953 548266.47000122 31.51000023 168.000000 2.000000 0.000000 2.000000 1.000000 234371016.684112 39.000000 1.000000
236459.96002197 548266.41999817 19.02000046 168.000000 2.000000 0.000000 2.000000 2.000000 234371016.684112 54.000000 1.000000
236460.96997070 548266.19000244 31.53000069 168.000000 2.000000 0.000000 2.000000 1.000000 234371016.684115 61.000000 1.000000
236461.15002441 548265.91999817 31.54999924 168.000000 2.000000 0.000000 2.000000 1.000000 234371016.684118 30.000000 1.000000
236461.33001709 548265.66000366 31.56999969 168.000000 2.000000 0.000000 2.000000 1.000000 234371016.684120 44.000000 1.000000
236461.52001953 548265.37999725 31.57999992 168.000000 2.000000 0.000000 2.000000 1.000000 234371016.684123 44.000000 1.000000
236461.71997070 548265.11000061 31.62000084 168.000000 2.000000 0.000000 2.000000 1.000000 234371016.684126 54.000000 1.000000
236461.91998291 548264.80999756 31.64999962 168.000000 2.000000 0.000000 2.000000 1.000000 234371016.684128 39.000000 1.000000
236462.09997559 548264.55999756 31.70000076 168.000000 2.000000 0.000000 2.000000 1.000000 234371016.684130 114.000000 1.000000
236462.30999756 548264.26999664 31.78000069 168.000000 2.000000 0.000000 2.000000 1.000000 234371016.684133 39.000000 1.000000
236462.48999023 548264.00000000 31.79999924 168.000000 2.000000 0.000000 2.000000 1.000000 234371016.684136 31.000000 1.000000
236462.69000244 548263.74000168 31.88999939 168.000000 2.000000 0.000000 2.000000 1.000000 234371016.684139 133.000000 1.000000
236462.86999512 548263.47999954 31.95999908 168.000000 1.000000 0.000000 2.000000 1.000000 234371016.684141 30.000000 1.000000
236463.07000732 548263.18999863 32.02999878 168.000000 1.000000 0.000000 2.000000 1.000000 234371016.684144 53.000000 1.000000
236463.27001953 548262.90999985 32.11000061 168.000000 1.000000 0.000000 2.000000 1.000000 234371016.684146 88.000000 1.000000
236463.46997070 548262.63000107 32.18999863 168.000000 1.000000 0.000000 2.000000 1.000000 234371016.684149 54.000000 1.000000
236463.66998291 548262.36000061 32.27999878 168.000000 1.000000 0.000000 2.000000 1.000000 234371016.684151 48.000000 1.000000
236463.85998535 548262.09000015 32.40000153 168.000000 1.000000 0.000000 2.000000 1.000000 234371016.684154 63.000000 1.000000
236464.03997803 548261.83000183 32.50000000 168.000000 1.000000 0.000000 2.000000 1.000000 234371016.684157 42.000000 1.000000
236464.23999023 548261.56000137 32.59999847 168.000000 1.000000 0.000000 2.000000 1.000000 234371016.684159 51.000000 1.000000
236464.44000244 548261.27999878 32.72999954 168.000000 1.000000 0.000000 2.000000 1.000000 234371016.684162 34.000000 1.000000
236464.65002441 548261.00000000 32.88000107 168.000000 1.000000 0.000000 2.000000 1.000000 234371016.684164 40.000000 1.000000
236464.83001709 548260.74000168 33.00000000 168.000000 1.000000 0.000000 2.000000 1.000000 234371016.684167 61.000000 1.000000
236465.04998779 548260.45000076 33.15999985 168.000000 1.000000 0.000000 2.000000 1.000000 234371016.684170 67.000000 1.000000
236465.22998047 548260.18999863 33.31000137 168.000000 1.000000 0.000000 2.000000 1.000000 234371016.684172 53.000000 1.000000
236465.42999268 548259.91999817 33.45000076 168.000000 1.000000 0.000000 2.000000 1.000000 234371016.684175 42.000000 1.000000
236465.60998535 548259.66999817 33.63999939 168.000000 1.000000 0.000000 2.000000 1.000000 234371016.684177 39.000000 1.000000
236465.83001709 548259.38000107 33.79999924 168.000000 1.000000 0.000000 2.000000 1.000000 234371016.684180 141.000000 1.000000
236466.03002930 548259.11000061 34.00999832 168.000000 1.000000 0.000000 3.000000 1.000000 234371016.684182 29.000000 1.000000
236465.97998047 548259.09000015 33.02999878 168.000000 1.000000 0.000000 3.000000 2.000000 234371016.684182 41.000000 1.000000
236466.22998047 548258.84000015 34.18999863 168.000000 1.000000 0.000000 2.000000 1.000000 234371016.684185 33.000000 1.000000
236466.42999268 548258.56000137 34.38000107 168.000000 1.000000 0.000000 2.000000 1.000000 234371016.684188 41.000000 1.000000
236466.63000488 548258.29999924 34.59000015 168.000000 1.000000 0.000000 2.000000 1.000000 234371016.684190 64.000000 1.000000
236466.80999756 548258.04999924 34.79999924 168.000000 1.000000 0.000000 2.000000 1.000000 234371016.684193 58.000000 1.000000
236467.02001953 548257.77999878 35.02999878 168.000000 1.000000 0.000000 2.000000 1.000000 234371016.684195 34.000000 1.000000
236467.21997070 548257.50999832 35.25999832 168.000000 1.000000 0.000000 2.000000 1.000000 234371016.684198 58.000000 1.000000
236467.42999268 548257.22999954 35.50999832 168.000000 1.000000 0.000000 1.000000 1.000000 234371016.684201 123.000000 1.000000
236467.61999512 548256.97999954 35.66999817 168.000000 1.000000 0.000000 2.000000 1.000000 234371016.684203 78.000000 1.000000
236467.84002686 548256.68999863 36.04000092 168.000000 0.000000 0.000000 2.000000 1.000000 234371016.684206 33.000000 1.000000
236468.03002930 548256.43999863 36.29000092 168.000000 0.000000 0.000000 2.000000 1.000000 234371016.684208 74.000000 1.000000
236468.22998047 548256.18000031 36.56999969 168.000000 0.000000 0.000000 2.000000 1.000000 234371016.684211 43.000000 1.000000
236468.41998291 548255.93000031 36.84999847 168.000000 0.000000 0.000000 2.000000 1.000000 234371016.684213 113.000000 1.000000
236468.63000488 548255.65000153 37.13999939 168.000000 0.000000 0.000000 2.000000 1.000000 234371016.684216 39.000000 1.000000
236457.07000732 548271.22000122 32.13999939 168.000000 3.000000 0.000000 2.000000 1.000000 234371016.689985 91.000000 1.000000
236457.25000000 548270.95999908 32.09000015 168.000000 3.000000 0.000000 2.000000 1.000000 234371016.689987 61.000000 1.000000
236457.44000244 548270.66999817 32.00000000 168.000000 3.000000 0.000000 2.000000 1.000000 234371016.689990 66.000000 1.000000
236457.63000488 548270.38999939 31.93000031 168.000000 3.000000 0.000000 2.000000 1.000000 234371016.689993 84.000000 1.000000
236457.82000732 548270.12000275 31.87000084 168.000000 2.000000 0.000000 2.000000 1.000000 234371016.689995 57.000000 1.000000
236458.00000000 548269.83999634 31.80999947 168.000000 2.000000 0.000000 2.000000 1.000000 234371016.689998 59.000000 1.000000
236458.19000244 548269.56999969 31.75000000 168.000000 2.000000 0.000000 2.000000 1.000000 234371016.690000 43.000000 1.000000
236458.36999512 548269.30999756 31.70000076 168.000000 2.000000 0.000000 2.000000 1.000000 234371016.690003 41.000000 1.000000
236458.54998779 548269.04000092 31.62999916 168.000000 2.000000 0.000000 2.000000 1.000000 234371016.690005 118.000000 1.000000
236458.73999023 548268.75000000 31.61000061 168.000000 2.000000 0.000000 2.000000 1.000000 234371016.690008 72.000000 1.000000
236458.94000244 548268.45999908 31.59000015 168.000000 2.000000 0.000000 2.000000 1.000000 234371016.690011 59.000000 1.000000
236459.11999512 548268.19999695 31.55999947 168.000000 2.000000 0.000000 2.000000 1.000000 234371016.690013 34.000000 1.000000
236459.32000732 548267.91000366 31.53000069 168.000000 2.000000 0.000000 2.000000 1.000000 234371016.690016 35.000000 1.000000
236459.50000000 548267.65000153 31.50000000 168.000000 2.000000 0.000000 2.000000 1.000000 234371016.690018 38.000000 1.000000
236459.69000244 548267.37999725 31.48999977 168.000000 2.000000 0.000000 2.000000 1.000000 234371016.690021 83.000000 1.000000
236459.09002686 548267.36000061 22.46999931 168.000000 2.000000 0.000000 2.000000 2.000000 234371016.690021 73.000000 1.000000
236459.85998535 548267.12000275 31.45999908 168.000000 2.000000 0.000000 2.000000 1.000000 234371016.690023 33.000000 1.000000
236460.07000732 548266.83000183 31.46999931 168.000000 2.000000 0.000000 2.000000 1.000000 234371016.690026 30.000000 1.000000
236460.26000977 548266.55000305 31.45999908 168.000000 2.000000 0.000000 2.000000 1.000000 234371016.690029 63.000000 1.000000
236460.45001221 548266.27999878 31.45999908 168.000000 2.000000 0.000000 2.000000 1.000000 234371016.690031 129.000000 1.000000
236459.66998291 548266.23000336 19.37000084 168.000000 2.000000 0.000000 2.000000 2.000000 234371016.690031 13.000000 1.000000
236460.65002441 548265.98999786 31.50000000 168.000000 2.000000 0.000000 2.000000 1.000000 234371016.690034 35.000000 1.000000
236460.83001709 548265.72000122 31.52000046 168.000000 2.000000 0.000000 2.000000 1.000000 234371016.690037 47.000000 1.000000
236461.01000977 548265.45999908 31.50000000 168.000000 2.000000 0.000000 2.000000 1.000000 234371016.690039 41.000000 1.000000
236461.20001221 548265.19000244 31.54000092 168.000000 2.000000 0.000000 2.000000 1.000000 234371016.690041 182.000000 1.000000
236461.40002441 548264.91000366 31.57999992 168.000000 2.000000 0.000000 2.000000 1.000000 234371016.690044 39.000000 1.000000
236461.59997559 548264.62000275 31.59000015 168.000000 2.000000 0.000000 2.000000 1.000000 234371016.690047 83.000000 1.000000
236461.78002930 548264.36000061 31.65999985 168.000000 2.000000 0.000000 2.000000 1.000000 234371016.690049 70.000000 1.000000
236461.98999023 548264.06999969 31.70000076 168.000000 2.000000 0.000000 2.000000 1.000000 234371016.690052 82.000000 1.000000
236462.16998291 548263.81000137 31.77000046 168.000000 2.000000 0.000000 2.000000 1.000000 234371016.690055 30.000000 1.000000
236462.35998535 548263.54000092 31.81999969 168.000000 2.000000 0.000000 2.000000 1.000000 234371016.690057 36.000000 1.000000
236462.54998779 548263.27999878 31.88999939 168.000000 1.000000 0.000000 2.000000 1.000000 234371016.690059 26.000000 1.000000
236462.75000000 548262.99000168 31.95999908 168.000000 1.000000 0.000000 2.000000 1.000000 234371016.690062 18.000000 1.000000
236462.95001221 548262.70999908 32.02000046 168.000000 1.000000 0.000000 2.000000 1.000000 234371016.690065 72.000000 1.000000
236463.14001465 548262.43999863 32.11999893 168.000000 1.000000 0.000000 2.000000 1.000000 234371016.690068 50.000000 1.000000
236463.34002686 548262.15999985 32.25000000 168.000000 1.000000 0.000000 2.000000 1.000000 234371016.690070 36.000000 1.000000
236463.53997803 548261.88999939 32.34000015 168.000000 1.000000 0.000000 2.000000 1.000000 234371016.690073 34.000000 1.000000
236463.71997070 548261.63000107 32.43999863 168.000000 1.000000 0.000000 2.000000 1.000000 234371016.690075 39.000000 1.000000
236463.91998291 548261.36999893 32.54999924 168.000000 1.000000 0.000000 2.000000 1.000000 234371016.690078 32.000000 1.000000
236464.11999512 548261.08000183 32.68000031 168.000000 1.000000 0.000000 2.000000 1.000000 234371016.690080 65.000000 1.000000
236464.33001709 548260.79999924 32.81000137 168.000000 1.000000 0.000000 2.000000 1.000000 234371016.690083 85.000000 1.000000
236464.52001953 548260.54000092 32.95000076 168.000000 1.000000 0.000000 2.000000 1.000000 234371016.690086 35.000000 1.000000
236464.71997070 548260.25000000 33.09999847 168.000000 1.000000 0.000000 2.000000 1.000000 234371016.690088 44.000000 1.000000
236464.90997314 548260.00000000 33.22999954 168.000000 1.000000 0.000000 2.000000 1.000000 234371016.690091 46.000000 1.000000
236465.10998535 548259.72000122 33.38000107 168.000000 1.000000 0.000000 2.000000 1.000000 234371016.690093 40.000000 1.000000
236465.28997803 548259.47000122 33.54999924 168.000000 1.000000 0.000000 2.000000 1.000000 234371016.690096 43.000000 1.000000
236465.50000000 548259.18000031 33.72000122 168.000000 1.000000 0.000000 2.000000 1.000000 234371016.690099 45.000000 1.000000
236465.71002197 548258.90999985 33.90999985 168.000000 1.000000 0.000000 3.000000 1.000000 234371016.690101 36.000000 1.000000
236465.64001465 548258.88999939 32.74000168 168.000000 1.000000 0.000000 3.000000 2.000000 234371016.690101 9.000000 1.000000
236465.90002441 548258.63999939 34.11000061 168.000000 1.000000 0.000000 2.000000 1.000000 234371016.690104 40.000000 1.000000
236466.10998535 548258.36000061 34.31000137 168.000000 1.000000 0.000000 2.000000 1.000000 234371016.690106 112.000000 1.000000
236466.30999756 548258.09999847 34.50999832 168.000000 1.000000 0.000000 2.000000 1.000000 234371016.690109 91.000000 1.000000
236466.48999023 548257.84999847 34.72999954 168.000000 1.000000 0.000000 2.000000 1.000000 234371016.690111 52.000000 1.000000
236466.69000244 548257.58000183 34.95000076 168.000000 1.000000 0.000000 2.000000 1.000000 234371016.690114 53.000000 1.000000
236466.90002441 548257.31000137 35.18999863 168.000000 1.000000 0.000000 2.000000 1.000000 234371016.690117 62.000000 1.000000
236467.10998535 548257.02000046 35.34999847 168.000000 1.000000 0.000000 2.000000 1.000000 234371016.690119 68.000000 1.000000
236467.29998779 548256.77999878 35.68999863 168.000000 1.000000 0.000000 2.000000 1.000000 234371016.690122 43.000000 1.000000
236467.51000977 548256.49000168 35.95000076 168.000000 0.000000 0.000000 2.000000 1.000000 234371016.690124 51.000000 1.000000
236467.71002197 548256.24000168 36.22999954 168.000000 0.000000 0.000000 2.000000 1.000000 234371016.690127 26.000000 1.000000
236467.90997314 548255.97999954 36.47999954 168.000000 0.000000 0.000000 2.000000 1.000000 234371016.690130 102.000000 1.000000
236468.09997559 548255.72999954 36.77999878 168.000000 0.000000 0.000000 2.000000 1.000000 234371016.690132 42.000000 1.000000
236468.30999756 548255.45000076 37.06999969 168.000000 0.000000 0.000000 2.000000 1.000000 234371016.690135 38.000000 1.000000
236468.52001953 548255.18000031 37.40999985 168.000000 0.000000 0.000000 2.000000 1.000000 234371016.690137 54.000000 1.000000
236456.78997803 548271.08000183 32.13999939 168.000000 3.000000 0.000000 2.000000 1.000000 234371016.695903 52.000000 1.000000
236456.96002197 548270.81999969 32.08000183 168.000000 3.000000 0.000000 2.000000 1.000000 234371016.695906 98.000000 1.000000
236457.15997314 548270.52999878 31.97999954 168.000000 3.000000 0.000000 2.000000 1.000000 234371016.695908 107.000000 1.000000
236457.34997559 548270.25000000 31.92000008 168.000000 3.000000 0.000000 2.000000 1.000000 234371016.695911 188.000000 1.000000
236457.53002930 548269.98000336 31.86000061 168.000000 2.000000 0.000000 2.000000 1.000000 234371016.695914 45.000000 1.000000
236457.71997070 548269.69999695 31.79000092 168.000000 2.000000 0.000000 2.000000 1.000000 234371016.695916 67.000000 1.000000
236457.90997314 548269.41999817 31.75000000 168.000000 2.000000 0.000000 2.000000 1.000000 234371016.695919 124.000000 1.000000
236458.07000732 548269.16999817 31.60000038 168.000000 2.000000 0.000000 2.000000 1.000000 234371016.695921 99.000000 1.000000
236458.26000977 548268.90000153 31.62999916 168.000000 2.000000 0.000000 2.000000 1.000000 234371016.695924 47.000000 1.000000
236458.46002197 548268.61000061 31.61000061 168.000000 2.000000 0.000000 2.000000 1.000000 234371016.695926 52.000000 1.000000
236458.65997314 548268.31999969 31.56999969 168.000000 2.000000 0.000000 2.000000 1.000000 234371016.695929 34.000000 1.000000
236458.83001709 548268.05999756 31.54000092 168.000000 2.000000 0.000000 2.000000 1.000000 234371016.695932 36.000000 1.000000
236459.03002930 548267.76999664 31.51000023 168.000000 2.000000 0.000000 2.000000 1.000000 234371016.695935 27.000000 1.000000
236459.21002197 548267.51000214 31.46999931 168.000000 2.000000 0.000000 2.000000 1.000000 234371016.695937 81.000000 1.000000
236459.40002441 548267.23999786 31.44000053 168.000000 2.000000 0.000000 1.000000 1.000000 234371016.695939 57.000000 1.000000
236459.58001709 548266.98000336 31.40999985 168.000000 2.000000 0.000000 2.000000 1.000000 234371016.695942 91.000000 1.000000
236459.00000000 548266.95999908 22.75000000 168.000000 2.000000 0.000000 2.000000 2.000000 234371016.695942 25.000000 1.000000
236459.78002930 548266.69000244 31.44000053 168.000000 2.000000 0.000000 2.000000 1.000000 234371016.695945 102.000000 1.000000
236459.96997070 548266.41000366 31.42000008 168.000000 2.000000 0.000000 2.000000 1.000000 234371016.695947 23.000000 1.000000
236460.15997314 548266.13999939 31.44000053 168.000000 2.000000 0.000000 3.000000 1.000000 234371016.695950 35.000000 1.000000
236459.38000488 548266.08999634 19.36000061 168.000000 2.000000 0.000000 3.000000 2.000000 234371016.695950 46.000000 1.000000
236460.35998535 548265.84999847 31.45000076 168.000000 2.000000 0.000000 2.000000 1.000000 234371016.695953 110.000000 1.000000
236459.59002686 548265.80000305 19.51000023 168.000000 2.000000 0.000000 2.000000 2.000000 234371016.695953 31.000000 1.000000
236460.53997803 548265.58000183 31.45999908 168.000000 2.000000 0.000000 2.000000 1.000000 234371016.695955 39.000000 1.000000
236460.71997070 548265.31999969 31.46999931 168.000000 2.000000 0.000000 2.000000 1.000000 234371016.695957 37.000000 1.000000
236460.90997314 548265.05000305 31.48999977 168.000000 2.000000 0.000000 2.000000 1.000000 234371016.695960 44.000000 1.000000
236461.10998535 548264.76999664 31.53000069 168.000000 2.000000 0.000000 2.000000 1.000000 234371016.695963 69.000000 1.000000
236461.32000732 548264.48000336 31.56999969 168.000000 2.000000 0.000000 2.000000 1.000000 234371016.695966 25.000000 1.000000
236461.50000000 548264.22000122 31.61000061 168.000000 2.000000 0.000000 2.000000 1.000000 234371016.695968 50.000000 1.000000
236461.70001221 548263.93000031 31.61000061 168.000000 2.000000 0.000000 1.000000 1.000000 234371016.695971 144.000000 1.000000
236461.88000488 548263.66999817 31.63999939 168.000000 2.000000 0.000000 2.000000 1.000000 234371016.695973 93.000000 1.000000
236462.07000732 548263.40000153 31.70000076 168.000000 2.000000 0.000000 2.000000 1.000000 234371016.695976 88.000000 1.000000
236462.26000977 548263.13999939 31.81999969 168.000000 1.000000 0.000000 2.000000 1.000000 234371016.695978 123.000000 1.000000
236462.46002197 548262.84999847 31.90999985 168.000000 1.000000 0.000000 2.000000 1.000000 234371016.695981 141.000000 1.000000
236462.65997314 548262.56999969 31.98999977 168.000000 1.000000 0.000000 2.000000 1.000000 234371016.695984 147.000000 1.000000
236462.85998535 548262.29999924 32.08000183 168.000000 1.000000 0.000000 1.000000 1.000000 234371016.695986 189.000000 1.000000
236463.05999756 548262.02000046 32.16999817 168.000000 1.000000 0.000000 1.000000 1.000000 234371016.695989 152.000000 1.000000
236463.25000000 548261.75000000 32.27999878 168.000000 1.000000 0.000000 2.000000 1.000000 234371016.695991 140.000000 1.000000
236463.42999268 548261.49000168 32.36000061 168.000000 1.000000 0.000000 2.000000 1.000000 234371016.695994 80.000000 1.000000
236463.61999512 548261.22999954 32.43999863 168.000000 1.000000 0.000000 2.000000 1.000000 234371016.695996 42.000000 1.000000
236463.83001709 548260.93999863 32.54000092 168.000000 1.000000 0.000000 2.000000 1.000000 234371016.695999 99.000000 1.000000
236464.03997803 548260.65000153 32.68000031 168.000000 1.000000 0.000000 2.000000 1.000000 234371016.696002 72.000000 1.000000
236464.21997070 548260.40000153 32.88000107 168.000000 1.000000 0.000000 3.000000 1.000000 234371016.696004 35.000000 1.000000
236464.13000488 548260.38000107 31.25000000 168.000000 1.000000 0.000000 3.000000 2.000000 234371016.696004 16.000000 1.000000
236464.42999268 548260.11000061 33.04000092 168.000000 1.000000 0.000000 2.000000 1.000000 234371016.696007 123.000000 1.000000
236464.61999512 548259.86000061 33.18000031 168.000000 1.000000 0.000000 2.000000 1.000000 234371016.696009 71.000000 1.000000
236464.80999756 548259.59000015 33.31000137 168.000000 1.000000 0.000000 2.000000 1.000000 234371016.696012 67.000000 1.000000
236465.01000977 548259.33000183 33.49000168 168.000000 1.000000 0.000000 2.000000 1.000000 234371016.696014 43.000000 1.000000
236465.21002197 548259.04999924 33.66999817 168.000000 1.000000 0.000000 2.000000 1.000000 234371016.696017 45.000000 1.000000
236465.41998291 548258.77000046 33.84999847 168.000000 1.000000 0.000000 2.000000 1.000000 234371016.696020 49.000000 1.000000
236465.60998535 548258.50999832 34.02999878 168.000000 1.000000 0.000000 2.000000 1.000000 234371016.696022 62.000000 1.000000
236465.82000732 548258.22000122 34.22999954 168.000000 1.000000 0.000000 2.000000 1.000000 234371016.696025 120.000000 1.000000
236466.01000977 548257.97000122 34.43000031 168.000000 1.000000 0.000000 2.000000 1.000000 234371016.696028 45.000000 1.000000
236466.21002197 548257.70999908 34.65000153 168.000000 1.000000 0.000000 2.000000 1.000000 234371016.696030 53.000000 1.000000
236466.40002441 548257.45000076 34.88000107 168.000000 1.000000 0.000000 2.000000 1.000000 234371016.696032 50.000000 1.000000
236466.60998535 548257.16999817 35.09999847 168.000000 1.000000 0.000000 2.000000 1.000000 234371016.696035 120.000000 1.000000
236466.82000732 548256.88999939 35.36999893 168.000000 1.000000 0.000000 2.000000 1.000000 234371016.696038 46.000000 1.000000
236467.02001953 548256.63000107 35.59000015 168.000000 1.000000 0.000000 2.000000 1.000000 234371016.696040 38.000000 1.000000
236467.21997070 548256.36000061 35.88000107 168.000000 1.000000 0.000000 2.000000 1.000000 234371016.696043 38.000000 1.000000
236467.41998291 548256.09999847 36.15000153 168.000000 0.000000 0.000000 2.000000 1.000000 234371016.696046 63.000000 1.000000
236467.60998535 548255.84999847 36.36999893 168.000000 0.000000 0.000000 2.000000 1.000000 234371016.696048 41.000000 1.000000
236467.80999756 548255.58000183 36.66999817 168.000000 0.000000 0.000000 2.000000 1.000000 234371016.696050 59.000000 1.000000
236468.02001953 548255.31999969 37.00000000 168.000000 0.000000 0.000000 2.000000 1.000000 234371016.696053 23.000000 1.000000
236468.22998047 548255.04000092 37.29999924 168.000000 0.000000 0.000000 2.000000 1.000000 234371016.696056 39.000000 1.000000
236468.42999268 548254.79000092 37.61999893 168.000000 0.000000 0.000000 2.000000 1.000000 234371016.696059 107.000000 1.000000
236456.32000732 548271.25000000 32.20000076 168.000000 3.000000 0.000000 2.000000 1.000000 234371016.701819 38.000000 1.000000
236456.50000000 548270.98999786 32.15000153 168.000000 3.000000 0.000000 2.000000 1.000000 234371016.701822 36.000000 1.000000
236456.67999268 548270.72000122 32.08000183 168.000000 3.000000 0.000000 2.000000 1.000000 234371016.701824 50.000000 1.000000
236456.86999512 548270.43000031 32.00000000 168.000000 3.000000 0.000000 2.000000 1.000000 234371016.701827 143.000000 1.000000
236457.05999756 548270.15000153 31.92000008 168.000000 3.000000 0.000000 2.000000 1.000000 234371016.701830 135.000000 1.000000
236457.23999023 548269.88999939 31.86000061 168.000000 2.000000 0.000000 2.000000 1.000000 234371016.701833 70.000000 1.000000
236457.44000244 548269.58999634 31.79000092 168.000000 2.000000 0.000000 2.000000 1.000000 234371016.701835 120.000000 1.000000
236457.60998535 548269.33000183 31.70999908 168.000000 2.000000 0.000000 2.000000 1.000000 234371016.701837 51.000000 1.000000
236457.79998779 548269.05999756 31.67000008 168.000000 2.000000 0.000000 2.000000 1.000000 234371016.701840 39.000000 1.000000
236457.96997070 548268.80999756 31.62000084 168.000000 2.000000 0.000000 2.000000 1.000000 234371016.701843 71.000000 1.000000
236458.16998291 548268.51000214 31.56999969 168.000000 2.000000 0.000000 2.000000 1.000000 234371016.701845 44.000000 1.000000
236458.35998535 548268.23000336 31.53000069 168.000000 2.000000 0.000000 2.000000 1.000000 234371016.701848 90.000000 1.000000
236458.54998779 548267.95999908 31.50000000 168.000000 2.000000 0.000000 2.000000 1.000000 234371016.701850 49.000000 1.000000
236458.73999023 548267.68000031 31.47999954 168.000000 2.000000 0.000000 2.000000 1.000000 234371016.701853 33.000000 1.000000
236458.92999268 548267.41000366 31.46999931 168.000000 2.000000 0.000000 2.000000 1.000000 234371016.701855 25.000000 1.000000
236459.10998535 548267.15000153 31.44000053 168.000000 2.000000 0.000000 2.000000 1.000000 234371016.701858 31.000000 1.000000
236459.29998779 548266.87000275 31.39999962 168.000000 2.000000 0.000000 2.000000 1.000000 234371016.701861 85.000000 1.000000
236458.73999023 548266.86000061 23.03000069 168.000000 2.000000 0.000000 2.000000 2.000000 234371016.701861 41.000000 1.000000
236459.48999023 548266.58999634 31.38999939 168.000000 2.000000 0.000000 2.000000 1.000000 234371016.701863 73.000000 1.000000
236459.69000244 548266.30000305 31.39999962 168.000000 2.000000 0.000000 2.000000 1.000000 234371016.701866 35.000000 1.000000
236459.86999512 548266.04000092 31.40999985 168.000000 2.000000 0.000000 2.000000 1.000000 234371016.701868 73.000000 1.000000
236460.07000732 548265.75000000 31.39999962 168.000000 2.000000 0.000000 2.000000 1.000000 234371016.701871 42.000000 1.000000
236459.32000732 548265.69999695 19.72999954 168.000000 2.000000 0.000000 2.000000 2.000000 234371016.701871 75.000000 1.000000
236460.25000000 548265.48999786 31.40999985 168.000000 2.000000 0.000000 3.000000 1.000000 234371016.701874 46.000000 1.000000
236460.17999268 548265.48000336 30.22999954 168.000000 2.000000 0.000000 3.000000 2.000000 234371016.701874 37.000000 1.000000
236460.44000244 548265.22000122 31.44000053 168.000000 2.000000 0.000000 2.000000 1.000000 234371016.701876 99.000000 1.000000
236460.61999512 548264.95999908 31.46999931 168.000000 2.000000 0.000000 2.000000 1.000000 234371016.701879 31.000000 1.000000
236460.83001709 548264.66999817 31.48999977 168.000000 2.000000 0.000000 2.000000 1.000000 234371016.701881 174.000000 1.000000
236461.02001953 548264.38999939 31.47999954 168.000000 2.000000 0.000000 2.000000 1.000000 234371016.701884 54.000000 1.000000
236461.21002197 548264.11000061 31.48999977 168.000000 2.000000 0.000000 2.000000 1.000000 234371016.701886 65.000000 1.000000
236461.40997314 548263.84000015 31.62000084 168.000000 2.000000 0.000000 1.000000 1.000000 234371016.701889 187.000000 1.000000
236461.59997559 548263.56999969 31.61000061 168.000000 2.000000 0.000000 1.000000 1.000000 234371016.701892 129.000000 1.000000
236461.78002930 548263.31000137 31.71999931 168.000000 2.000000 0.000000 2.000000 1.000000 234371016.701895 51.000000 1.000000
236461.97998047 548263.04000092 31.79000092 168.000000 2.000000 0.000000 2.000000 1.000000 234371016.701897 73.000000 1.000000
236462.17999268 548262.75000000 31.87000084 168.000000 1.000000 0.000000 3.000000 1.000000 234371016.701899 50.000000 1.000000
236462.11999512 548262.74000168 30.88999939 168.000000 1.000000 0.000000 3.000000 2.000000 234371016.701899 40.000000 1.000000
236462.38000488 548262.45999908 31.95000076 168.000000 1.000000 0.000000 2.000000 1.000000 234371016.701902 37.000000 1.000000
236462.55999756 548262.20999908 32.00000000 168.000000 1.000000 0.000000 1.000000 1.000000 234371016.701905 175.000000 1.000000
236462.77001953 548261.90999985 32.13000107 168.000000 1.000000 0.000000 3.000000 1.000000 234371016.701907 31.000000 1.000000
236462.69000244 548261.90000153 30.72999954 168.000000 1.000000 0.000000 3.000000 2.000000 234371016.701907 37.000000 1.000000
236462.96002197 548261.65999985 32.20999908 168.000000 1.000000 0.000000 2.000000 1.000000 234371016.701910 39.000000 1.000000
236463.15002441 548261.38999939 32.29000092 168.000000 1.000000 0.000000 2.000000 1.000000 234371016.701912 35.000000 1.000000
236463.33001709 548261.13000107 32.43999863 168.000000 1.000000 0.000000 3.000000 1.000000 234371016.701915 43.000000 1.000000
236463.27001953 548261.11999893 31.27000046 168.000000 1.000000 0.000000 3.000000 2.000000 234371016.701915 51.000000 1.000000
236463.53997803 548260.84000015 32.52999878 168.000000 1.000000 0.000000 2.000000 1.000000 234371016.701917 74.000000 1.000000
236463.73999023 548260.56000137 32.68000031 168.000000 1.000000 0.000000 2.000000 1.000000 234371016.701920 140.000000 1.000000
236463.94000244 548260.29000092 32.81000137 168.000000 1.000000 0.000000 3.000000 1.000000 234371016.701923 81.000000 1.000000
236463.84002686 548260.27000046 31.03000069 168.000000 1.000000 0.000000 3.000000 2.000000 234371016.701923 63.000000 1.000000
236464.14001465 548260.00999832 32.93999863 168.000000 1.000000 0.000000 1.000000 1.000000 234371016.701926 139.000000 1.000000
236464.33001709 548259.75000000 33.09000015 168.000000 1.000000 0.000000 2.000000 1.000000 234371016.701928 27.000000 1.000000
236464.52001953 548259.49000168 33.27000046 168.000000 1.000000 0.000000 2.000000 1.000000 234371016.701930 29.000000 1.000000
236464.71997070 548259.22000122 33.43000031 168.000000 1.000000 0.000000 2.000000 1.000000 234371016.701933 61.000000 1.000000
236464.91998291 548258.95000076 33.59000015 168.000000 1.000000 0.000000 2.000000 1.000000 234371016.701936 58.000000 1.000000
236465.13000488 548258.65999985 33.77999878 168.000000 1.000000 0.000000 2.000000 1.000000 234371016.701938 57.000000 1.000000
236465.32000732 548258.40999985 33.95999908 168.000000 1.000000 0.000000 2.000000 1.000000 234371016.701941 79.000000 1.000000
236465.53002930 548258.11999893 34.15999985 168.000000 1.000000 0.000000 2.000000 1.000000 234371016.701944 42.000000 1.000000
236465.72998047 548257.86000061 34.36000061 168.000000 1.000000 0.000000 2.000000 1.000000 234371016.701946 56.000000 1.000000
236465.91998291 548257.59999847 34.58000183 168.000000 1.000000 0.000000 2.000000 1.000000 234371016.701948 33.000000 1.000000
236466.10998535 548257.34999847 34.77999878 168.000000 1.000000 0.000000 2.000000 1.000000 234371016.701951 45.000000 1.000000
236466.32000732 548257.06000137 35.02000046 168.000000 1.000000 0.000000 2.000000 1.000000 234371016.701954 52.000000 1.000000
236466.53002930 548256.79000092 35.25999832 168.000000 1.000000 0.000000 2.000000 1.000000 234371016.701957 52.000000 1.000000
236466.72998047 548256.52000046 35.49000168 168.000000 1.000000 0.000000 2.000000 1.000000 234371016.701959 44.000000 1.000000
236466.92999268 548256.25999832 35.79999924 168.000000 1.000000 0.000000 2.000000 1.000000 234371016.701962 47.000000 1.000000
236467.13000488 548255.99000168 36.04999924 168.000000 0.000000 0.000000 2.000000 1.000000 234371016.701964 107.000000 1.000000
236467.32000732 548255.74000168 36.31999969 168.000000 0.000000 0.000000 2.000000 1.000000 234371016.701967 58.000000 1.000000
236467.52001953 548255.47999954 36.59999847 168.000000 0.000000 0.000000 2.000000 1.000000 234371016.701969 29.000000 1.000000
236467.72998047 548255.20999908 36.88000107 168.000000 0.000000 0.000000 2.000000 1.000000 234371016.701972 41.000000 1.000000
236467.94000244 548254.93000031 37.22999954 168.000000 0.000000 0.000000 2.000000 1.000000 234371016.701975 45.000000 1.000000
236468.13000488 548254.68999863 37.52999878 168.000000 0.000000 0.000000 2.000000 1.000000 234371016.701977 42.000000 1.000000
236468.34997559 548254.40000153 37.74000168 168.000000 0.000000 0.000000 2.000000 1.000000 234371016.701980 68.000000 1.000000
236456.00000000 548271.08000183 32.22999954 168.000000 3.000000 0.000000 2.000000 1.000000 234371016.707738 34.000000 1.000000
236456.17999268 548270.80999756 32.15000153 168.000000 3.000000 0.000000 2.000000 1.000000 234371016.707741 52.000000 1.000000
236456.35998535 548270.55000305 32.08000183 168.000000 3.000000 0.000000 2.000000 1.000000 234371016.707743 38.000000 1.000000
236456.53997803 548270.26999664 31.97999954 168.000000 3.000000 0.000000 2.000000 1.000000 234371016.707746 67.000000 1.000000
236456.73999023 548269.97000122 31.89999962 168.000000 3.000000 0.000000 2.000000 1.000000 234371016.707748 78.000000 1.000000
236456.91998291 548269.70999908 31.84000015 168.000000 3.000000 0.000000 2.000000 1.000000 234371016.707751 69.000000 1.000000
236457.11999512 548269.41999817 31.78000069 168.000000 2.000000 0.000000 2.000000 1.000000 234371016.707753 51.000000 1.000000
236457.28997803 548269.16000366 31.69000053 168.000000 2.000000 0.000000 2.000000 1.000000 234371016.707756 125.000000 1.000000
236457.46997070 548268.88999939 31.67000008 168.000000 2.000000 0.000000 2.000000 1.000000 234371016.707759 109.000000 1.000000
236457.65002441 548268.62999725 31.62000084 168.000000 2.000000 0.000000 2.000000 1.000000 234371016.707761 96.000000 1.000000
236457.84997559 548268.33999634 31.55999947 168.000000 2.000000 0.000000 2.000000 1.000000 234371016.707764 74.000000 1.000000
236458.03997803 548268.05999756 31.52000046 168.000000 2.000000 0.000000 2.000000 1.000000 234371016.707766 56.000000 1.000000
236458.22998047 548267.79000092 31.48999977 168.000000 2.000000 0.000000 2.000000 1.000000 234371016.707769 49.000000 1.000000
236458.41998291 548267.51000214 31.43000031 168.000000 2.000000 0.000000 2.000000 1.000000 234371016.707772 92.000000 1.000000
236458.60998535 548267.23999786 31.44000053 168.000000 2.000000 0.000000 2.000000 1.000000 234371016.707774 30.000000 1.000000
236458.78002930 548266.98000336 31.40999985 168.000000 2.000000 0.000000 2.000000 1.000000 234371016.707777 67.000000 1.000000
236458.96997070 548266.69999695 31.39999962 168.000000 2.000000 0.000000 2.000000 1.000000 234371016.707779 35.000000 1.000000
236459.15997314 548266.43000031 31.38999939 168.000000 2.000000 0.000000 2.000000 1.000000 234371016.707782 48.000000 1.000000
236458.64001465 548266.41000366 23.36000061 168.000000 2.000000 0.000000 2.000000 2.000000 234371016.707782 66.000000 1.000000
236459.36999512 548266.12999725 31.37999916 168.000000 2.000000 0.000000 2.000000 1.000000 234371016.707784 39.000000 1.000000
236459.54998779 548265.87000275 31.39999962 168.000000 2.000000 0.000000 2.000000 1.000000 234371016.707787 35.000000 1.000000
236459.75000000 548265.58000183 31.35000038 168.000000 2.000000 0.000000 3.000000 1.000000 234371016.707790 93.000000 1.000000
236459.00000000 548265.52999878 19.76000023 168.000000 2.000000 0.000000 3.000000 2.000000 234371016.707790 11.000000 1.000000
236459.92999268 548265.31999969 31.38999939 168.000000 2.000000 0.000000 2.000000 1.000000 234371016.707793 63.000000 1.000000
236459.20001221 548265.26000214 19.96999931 168.000000 2.000000 0.000000 2.000000 2.000000 234371016.707793 66.000000 1.000000
236460.10998535 548265.05000305 31.37999916 168.000000 2.000000 0.000000 3.000000 1.000000 234371016.707795 64.000000 1.000000
236460.03002930 548265.04000092 30.03000069 168.000000 2.000000 0.000000 3.000000 2.000000 234371016.707795 37.000000 1.000000
236460.28997803 548264.79000092 31.35000038 168.000000 2.000000 0.000000 2.000000 1.000000 234371016.707797 69.000000 1.000000
236460.50000000 548264.48999786 31.45000076 168.000000 2.000000 0.000000 2.000000 1.000000 234371016.707800 112.000000 1.000000
236460.70001221 548264.22000122 31.50000000 168.000000 2.000000 0.000000 2.000000 1.000000 234371016.707803 97.000000 1.000000
236460.88000488 548263.93999863 31.30999947 168.000000 2.000000 0.000000 2.000000 1.000000 234371016.707805 71.000000 1.000000
236461.08001709 548263.65999985 31.54999924 168.000000 2.000000 0.000000 2.000000 1.000000 234371016.707808 39.000000 1.000000
236461.27001953 548263.38999939 31.57999992 168.000000 2.000000 0.000000 2.000000 1.000000 234371016.707811 63.000000 1.000000
236461.46002197 548263.13000107 31.65999985 168.000000 2.000000 0.000000 3.000000 1.000000 234371016.707813 54.000000 1.000000
236461.35998535 548263.11000061 29.97999954 168.000000 2.000000 0.000000 3.000000 2.000000 234371016.707813 28.000000 1.000000
236461.65002441 548262.86000061 31.73999977 168.000000 2.000000 0.000000 3.000000 1.000000 234371016.707815 97.000000 1.000000
236461.55999756 548262.84999847 30.20000076 168.000000 2.000000 0.000000 3.000000 2.000000 234371016.707815 29.000000 1.000000
236461.84997559 548262.59000015 31.82999992 168.000000 1.000000 0.000000 3.000000 1.000000 234371016.707818 49.000000 1.000000
236461.72998047 548262.56999969 29.93000031 168.000000 1.000000 0.000000 3.000000 2.000000 234371016.707818 20.000000 1.000000
236462.05999756 548262.29000092 31.92000008 168.000000 1.000000 0.000000 3.000000 1.000000 234371016.707821 43.000000 1.000000
236461.94000244 548262.27000046 30.01000023 168.000000 1.000000 0.000000 3.000000 2.000000 234371016.707821 77.000000 1.000000
236462.23999023 548262.02999878 31.97999954 168.000000 1.000000 0.000000 2.000000 1.000000 234371016.707824 148.000000 1.000000
236462.13000488 548262.00999832 30.12000084 168.000000 1.000000 0.000000 2.000000 2.000000 234371016.707824 31.000000 1.000000
236462.45001221 548261.74000168 32.09000015 168.000000 1.000000 0.000000 3.000000 1.000000 234371016.707826 34.000000 1.000000
236462.34002686 548261.72000122 30.26000023 168.000000 1.000000 0.000000 3.000000 2.000000 234371016.707826 64.000000 1.000000
236462.63000488 548261.49000168 32.18000031 168.000000 1.000000 0.000000 3.000000 1.000000 234371016.707829 35.000000 1.000000
236462.53002930 548261.45999908 30.37999916 168.000000 1.000000 0.000000 3.000000 2.000000 234371016.707829 55.000000 1.000000
236462.82000732 548261.22000122 32.25999832 168.000000 1.000000 0.000000 3.000000 1.000000 234371016.707831 43.000000 1.000000
236462.71002197 548261.18999863 30.36000061 168.000000 1.000000 0.000000 3.000000 2.000000 234371016.707831 30.000000 1.000000
236463.01000977 548260.95999908 32.33000183 168.000000 1.000000 0.000000 3.000000 1.000000 234371016.707834 87.000000 1.000000
236462.90002441 548260.93000031 30.52000046 168.000000 1.000000 0.000000 3.000000 2.000000 234371016.707834 17.000000 1.000000
236463.21997070 548260.66999817 32.50999832 168.000000 1.000000 0.000000 3.000000 1.000000 234371016.707836 63.000000 1.000000
236463.10998535 548260.63999939 30.56999969 168.000000 1.000000 0.000000 3.000000 2.000000 234371016.707836 48.000000 1.000000
236463.41998291 548260.38999939 32.63000107 168.000000 1.000000 0.000000 2.000000 1.000000 234371016.707839 45.000000 1.000000
236463.32000732 548260.36000061 30.75000000 168.000000 1.000000 0.000000 2.000000 2.000000 234371016.707839 60.000000 1.000000
236463.60998535 548260.11999893 32.75000000 168.000000 1.000000 0.000000 2.000000 1.000000 234371016.707842 37.000000 1.000000
236463.51000977 548260.09000015 30.98999977 168.000000 1.000000 0.000000 2.000000 2.000000 234371016.707842 48.000000 1.000000
236463.80999756 548259.84999847 32.90999985 168.000000 1.000000 0.000000 2.000000 1.000000 234371016.707844 108.000000 1.000000
236464.01000977 548259.58000183 33.06000137 168.000000 1.000000 0.000000 1.000000 1.000000 234371016.707846 129.000000 1.000000
236464.19000244 548259.31999969 33.06000137 168.000000 1.000000 0.000000 2.000000 1.000000 234371016.707849 49.000000 1.000000
236464.39001465 548259.04999924 33.36000061 168.000000 1.000000 0.000000 1.000000 1.000000 234371016.707852 109.000000 1.000000
236464.59997559 548258.77999878 33.54999924 168.000000 1.000000 0.000000 2.000000 1.000000 234371016.707855 42.000000 1.000000
236464.80999756 548258.49000168 33.70999908 168.000000 1.000000 0.000000 2.000000 1.000000 234371016.707857 68.000000 1.000000
236465.00000000 548258.22999954 33.90000153 168.000000 1.000000 0.000000 2.000000 1.000000 234371016.707860 113.000000 1.000000
236465.21002197 548257.95000076 34.13000107 168.000000 1.000000 0.000000 2.000000 1.000000 234371016.707862 45.000000 1.000000
236465.40002441 548257.68999863 34.31000137 168.000000 1.000000 0.000000 2.000000 1.000000 234371016.707865 45.000000 1.000000
236465.59002686 548257.43000031 34.54000092 168.000000 1.000000 0.000000 2.000000 1.000000 234371016.707867 23.000000 1.000000
236465.78002930 548257.18000031 34.72000122 168.000000 1.000000 0.000000 2.000000 1.000000 234371016.707870 117.000000 1.000000
236466.00000000 548256.88999939 34.97000122 168.000000 1.000000 0.000000 3.000000 1.000000 234371016.707873 18.000000 1.000000
236465.95001221 548256.86999893 33.97999954 168.000000 1.000000 0.000000 3.000000 2.000000 234371016.707873 47.000000 1.000000
236466.20001221 548256.61999893 35.20000076 168.000000 1.000000 0.000000 2.000000 1.000000 234371016.707875 42.000000 1.000000
